# .PCD v0.7 - Point Cloud Data file format
VERSION 0.7
FIELDS x y z
SIZE 4 4 4
TYPE F F F
COUNT 1 1 1
WIDTH 3479
HEIGHT 1
VIEWPOINT 0 0 0 1 0 0 0
POINTS 3479
DATA ascii
-274 634 913
-274 632 913
-273 628 912
-274 627 914
-275 627 918
-273 622 915
-276 627 926
-274 619 919
-275 618 922
-274 615 921
-277 619 932
-276 614 928
-278 617 936
-279 617 941
-279 614 941
-279 614 944
-279 611 944
-280 610 947
-279 607 946
-280 607 951
-280 604 950
-280 602 952
-280 600 953
-274 652 894
-275 652 897
-273 647 894
-275 648 900
-275 647 902
-275 644 902
-274 639 899
-274 637 901
-276 639 907
-275 636 907
-277 637 912
-277 635 914
-276 631 911
-277 631 916
-277 628 916
-278 628 920
-277 624 918
-278 626 924
-277 620 920
-278 621 925
-276 614 919
-278 617 928
-279 616 930
-280 618 937
-281 616 939
-282 616 943
-282 614 945
-282 612 946
-283 612 950
-281 607 946
-283 609 953
-283 606 953
-277 650 898
-278 650 902
-278 648 903
-278 646 904
-278 643 905
-278 642 907
-278 639 907
-279 641 913
-279 637 912
-279 636 915
-279 632 913
-279 631 915
-279 628 915
-280 630 922
-280 627 922
-280 626 924
-279 620 920
-280 620 923
-279 617 923
-281 618 929
-280 613 926
-282 616 934
-283 617 940
-283 615 941
-285 615 946
-285 614 948
-285 613 951
-285 609 949
-285 608 951
-285 605 951
-279 651 899
-280 647 902
-280 647 905
-280 643 904
-280 642 907
-279 637 904
-281 639 910
-281 637 912
-280 634 911
-281 633 913
-282 633 918
-283 633 922
-282 630 921
-282 626 920
-282 625 923
-282 622 922
-282 621 924
-282 618 925
-283 618 928
-282 615 928
-285 619 938
-285 616 938
-286 616 942
-287 616 946
-287 614 947
-287 612 949
-287 611 951
-287 608 951
-281 652 897
-281 650 897
-283 651 903
-283 650 906
-283 648 907
-282 644 905
-283 643 908
-283 641 908
-282 638 908
-283 636 910
-283 636 913
-283 633 914
-284 633 918
-284 631 919
-284 629 920
-285 629 924
-285 626 923
-284 623 923
-285 621 925
-285 620 927
-285 618 928
-286 617 931
-286 615 932
-287 616 938
-289 617 944
-289 615 945
-290 616 950
-290 614 952
-290 612 952
-290 609 952
-284 651 899
-285 651 903
-284 648 902
-286 649 907
-284 642 902
-284 642 905
-285 641 908
-284 637 906
-284 635 907
-285 635 912
-287 637 919
-287 634 918
-288 634 922
-287 631 922
-287 629 923
-287 627 924
-287 625 925
-287 622 925
-288 622 929
-287 618 927
-289 619 933
-288 615 932
-290 618 940
-290 616 942
-292 618 949
-293 617 952
-292 614 951
-286 651 898
-287 651 902
-286 647 900
-288 649 907
-287 645 906
-288 645 909
-287 641 908
-287 639 909
-288 638 911
-288 637 914
-289 637 918
-290 636 921
-290 635 924
-290 633 925
-290 630 925
-290 629 927
-291 628 929
-291 626 931
-291 623 931
-291 623 934
-291 618 932
-292 619 937
-293 619 941
-293 617 943
-295 619 950
-296 618 953
-288 651 897
-289 652 903
-289 649 902
-291 651 909
-291 649 910
-291 646 911
-290 643 910
-290 640 910
-290 639 912
-290 637 914
-292 638 919
-293 638 923
-294 638 928
-292 633 924
-293 631 926
-294 632 931
-294 629 931
-294 628 933
-294 626 935
-294 624 935
-294 621 936
-295 621 940
-296 621 944
-297 620 947
-298 620 951
-290 650 896
-292 652 906
-294 652 911
-295 652 915
-294 649 914
-295 649 918
-293 642 913
-293 640 914
-293 638 915
-295 640 922
-295 639 924
-296 637 926
-296 635 927
-296 634 930
-297 633 932
-296 630 932
-298 631 937
-298 629 938
-298 626 939
-298 624 940
-298 624 943
-299 622 945
-299 621 947
-299 619 949
-300 619 953
-300 616 953
-297 650 915
-297 648 917
-296 644 914
-297 645 920
-295 639 915
-298 642 924
-298 640 925
-298 638 927
-298 636 928
-299 635 931
-299 633 931
-300 633 935
-300 632 938
-300 630 939
-301 629 942
-301 626 942
-301 624 944
-301 623 946
-302 623 950
-302 621 951
-303 619 953
-300 651 920
-300 647 919
-300 646 921
-299 642 919
-301 643 925
-300 639 924
-301 639 928
-301 637 928
-301 635 930
-302 635 934
-302 634 936
-303 633 939
-304 632 942
-304 630 944
-304 628 945
-304 626 946
-304 623 946
-304 622 948
-304 620 950
-304 618 950
-304 615 951
-304 614 953
-304 610 952
-304 608 953
-302 651 916
-303 652 921
-302 648 920
-303 647 922
-302 644 922
-303 643 924
-303 640 925
-303 638 926
-302 635 925
-303 635 929
-303 633 931
-304 632 934
-305 632 937
-305 630 939
-306 630 943
-306 627 943
-306 626 946
-307 625 948
-306 622 948
-307 621 951
-307 619 952
-307 617 953
-307 614 953
-306 651 923
-306 649 925
-305 645 923
-305 643 924
-305 641 925
-305 639 927
-305 637 928
-306 636 930
-306 634 932
-307 633 935
-306 631 935
-307 630 938
-308 630 943
-309 629 945
-309 627 946
-309 626 949
-309 623 949
-309 620 949
-309 619 951
-309 617 953
-309 614 952
-309 612 953
-309 650 926
-308 646 924
-308 644 925
-307 641 925
-307 638 925
-308 638 928
-308 637 931
-309 635 933
-308 632 933
-309 632 936
-309 630 937
-310 629 940
-311 630 946
-311 627 946
-311 625 947
-311 623 948
-312 623 952
-311 619 951
-311 651 927
-311 648 926
-310 644 925
-310 641 925
-310 640 927
-311 640 931
-311 637 931
-312 638 936
-311 633 933
-311 632 936
-311 629 936
-313 630 942
-313 630 945
-314 628 947
-314 626 948
-314 624 949
-314 622 950
-314 619 951
-314 618 953
-314 652 928
-314 650 928
-313 646 927
-312 642 926
-312 640 926
-312 638 928
-313 638 932
-314 637 934
-313 634 934
-313 632 935
-313 629 935
-314 629 940
-315 629 944
-316 628 946
-317 628 951
-317 625 951
-317 623 952
-316 620 952
-316 651 929
-315 646 927
-315 641 928
-316 641 931
-316 639 933
-316 637 934
-316 634 934
-316 633 936
-315 629 935
-317 630 941
-317 629 943
-319 630 949
-319 628 951
-319 652 931
-318 648 929
-318 642 929
-318 641 931
-319 640 934
-319 639 936
-320 638 939
-319 634 937
-319 631 938
-319 631 941
-321 632 947
-322 632 952
-322 629 952
-321 616 953
-321 651 929
-321 650 931
-321 646 930
-321 645 932
-322 644 935
-322 643 938
-322 640 937
-321 637 937
-323 637 942
-322 633 940
-322 632 943
-324 633 948
-324 631 950
-325 630 953
-324 622 953
-324 652 933
-324 649 934
-324 647 935
-325 646 937
-325 645 940
-325 643 941
-325 640 941
-325 637 941
-325 636 944
-327 637 949
-326 633 948
-327 633 952
-326 628 949
-327 625 953
-326 622 953
-327 650 934
-328 650 939
-328 649 941
-329 648 944
-328 644 942
-329 643 945
-329 641 947
-328 638 946
-329 637 949
-330 635 951
-330 634 953
-329 630 951
-329 627 951
-328 623 949
-328 621 950
-328 619 952
-328 617 953
-330 651 939
-332 651 943
-332 649 945
-331 645 944
-331 642 943
-331 641 946
-330 637 944
-331 636 947
-332 635 950
-332 634 953
-331 630 951
-330 626 949
-330 622 948
-329 620 948
-329 618 949
-330 617 953
-331 652 932
-333 651 939
-333 649 940
-333 647 942
-334 646 944
-333 642 942
-333 639 943
-333 637 944
-333 636 947
-334 635 949
-334 630 951
-333 627 950
-332 622 947
-331 619 947
-331 617 947
-332 617 952
-336 651 943
-336 649 944
-335 644 941
-334 640 939
-334 638 941
-334 635 940
-336 637 948
-336 635 949
-335 625 951
-335 623 952
-335 621 953
-338 652 940
-338 650 940
-337 647 940
-337 644 940
-336 640 939
-338 642 946
-337 637 943
-339 637 951
-339 632 952
-337 625 950
-338 623 952
-338 621 953
-340 650 940
-340 648 941
-339 643 939
-339 641 939
-339 638 940
-340 638 944
-340 636 945
-341 637 950
-341 652 934
-341 638 939
-341 637 942
-342 473 1073
-343 472 1077
-342 500 1055
-342 497 1055
-342 495 1056
-343 494 1060
-343 492 1062
-343 490 1062
-343 487 1062
-343 485 1063
-343 483 1065
-343 481 1066
-342 475 1065
-343 473 1067
-344 473 1072
-346 473 1079
-342 506 1046
-342 504 1047
-343 503 1051
-343 501 1051
-343 498 1052
-343 496 1053
-344 495 1055
-345 494 1059
-345 492 1061
-346 490 1063
-346 488 1064
-347 488 1069
-347 485 1068
-347 482 1069
-346 480 1069
-347 478 1071
-347 475 1071
-347 474 1073
-342 521 1032
-342 519 1034
-343 518 1037
-343 515 1037
-344 514 1040
-344 512 1042
-345 511 1044
-344 508 1044
-346 508 1050
-347 507 1053
-347 504 1053
-347 502 1054
-347 500 1055
-347 498 1057
-347 495 1056
-348 494 1060
-348 492 1061
-348 491 1064
-349 489 1065
-349 487 1066
-349 485 1068
-349 483 1069
-350 481 1071
-350 479 1073
-350 477 1074
-351 476 1078
-342 523 1021
-343 523 1025
-343 522 1028
-346 523 1035
-346 520 1036
-347 521 1042
-346 517 1040
-348 516 1044
-348 515 1046
-348 512 1047
-349 512 1051
-350 510 1053
-350 508 1055
-351 507 1058
-351 505 1059
-350 501 1057
-350 500 1059
-349 495 1055
-350 495 1061
-350 492 1061
-351 492 1065
-352 490 1067
-354 491 1075
-354 489 1076
-354 486 1075
-354 484 1077
-355 482 1079
-347 523 1031
-349 524 1038
-349 522 1038
-349 520 1041
-349 517 1040
-350 517 1044
-350 514 1045
-351 513 1048
-352 512 1051
-353 511 1055
-353 510 1058
-354 509 1061
-355 507 1064
-354 504 1062
-355 503 1065
-354 499 1063
-354 497 1065
-354 495 1066
-355 494 1069
-355 492 1070
-356 491 1074
-357 490 1078
-358 488 1080
-358 486 1081
-353 523 1045
-353 520 1046
-354 519 1048
-354 516 1048
-355 516 1054
-355 514 1054
-356 513 1058
-357 512 1061
-357 509 1062
-358 508 1065
-358 506 1065
-358 504 1067
-357 501 1066
-357 498 1066
-358 496 1068
-358 494 1070
-359 493 1073
-361 493 1079
-361 491 1080
-356 523 1045
-355 520 1044
-356 518 1046
-356 516 1047
-356 514 1048
-358 514 1054
-358 512 1055
-359 511 1060
-359 509 1061
-361 509 1066
-361 508 1069
-361 505 1069
-362 504 1072
-362 502 1074
-362 500 1075
-362 497 1075
-363 495 1077
-363 494 1080
-363 492 1081
-360 523 1050
-361 522 1053
-361 520 1054
-361 517 1055
-361 515 1056
-361 513 1058
-362 512 1061
-362 510 1063
-363 509 1065
-364 507 1068
-364 506 1071
-365 505 1074
-365 502 1074
-366 501 1077
-366 499 1078
-366 496 1079
-366 494 1080
-362 523 1050
-363 523 1054
-363 519 1053
-363 518 1055
-363 515 1056
-363 513 1057
-364 511 1059
-365 510 1062
-366 509 1066
-367 509 1070
-368 508 1074
-369 507 1077
-369 504 1078
-370 503 1081
-369 499 1079
-369 497 1080
-367 523 1059
-367 520 1060
-367 517 1059
-367 514 1059
-367 513 1061
-367 511 1062
-368 509 1065
-369 508 1069
-370 507 1072
-371 506 1075
-371 504 1077
-371 501 1077
-372 500 1080
-372 498 1081
-371 524 1062
-370 521 1061
-370 518 1061
-370 516 1062
-370 513 1062
-370 512 1064
-371 510 1066
-372 509 1069
-373 508 1074
-373 507 1076
-374 505 1078
-374 503 1079
-374 500 1080
-375 524 1066
-374 521 1066
-374 518 1066
-374 516 1067
-374 513 1067
-374 511 1068
-374 509 1070
-376 509 1075
-377 508 1078
-377 507 1081
-377 504 1081
-377 524 1066
-377 522 1067
-377 519 1067
-377 516 1067
-376 514 1067
-377 511 1068
-377 510 1070
-378 509 1075
-379 508 1078
-380 507 1081
-381 523 1069
-381 521 1070
-380 518 1069
-380 515 1069
-379 512 1068
-380 510 1070
-380 509 1073
-381 507 1075
-382 507 1080
-383 524 1070
-384 522 1072
-383 519 1071
-383 516 1070
-382 512 1069
-382 511 1071
-383 509 1073
-384 508 1076
-384 506 1079
-386 524 1069
-386 522 1072
-386 520 1072
-386 517 1073
-386 514 1072
-385 511 1072
-386 510 1074
-387 509 1078
-387 507 1079
-388 505 1081
-388 524 1069
-389 523 1072
-389 520 1072
-388 517 1072
-388 514 1072
-388 512 1073
-388 509 1073
-388 508 1075
-389 506 1078
-390 523 1066
-391 522 1069
-391 520 1072
-391 517 1072
-391 515 1073
-392 514 1076
-391 511 1075
-392 509 1077
-392 507 1079
-394 523 1071
-394 521 1072
-394 518 1073
-394 516 1074
-394 513 1074
-394 511 1076
-396 511 1081
-396 524 1068
-395 522 1068
-396 520 1070
-396 518 1071
-396 516 1073
-397 514 1076
-398 513 1079
-398 511 1081
-399 524 1072
-399 522 1073
-399 518 1072
-399 517 1074
-400 515 1077
-401 513 1079
-401 523 1069
-401 520 1070
-402 519 1073
-403 518 1076
-403 516 1078
-404 515 1081
-405 524 1072
-405 522 1073
-405 520 1075
-405 518 1076
-407 518 1081
-406 524 1070
-407 522 1072
-408 521 1076
-409 519 1078
-410 523 1074
-412 523 1080
-412 521 1081
-413 524 1074
-414 523 1078
-418 524 1080
-420 524 1079
-342 398 1203
-342 403 1193
-343 402 1198
-344 401 1202
-345 399 1204
-342 407 1181
-342 406 1184
-344 405 1189
-344 403 1191
-346 402 1197
-347 401 1203
-347 398 1202
-342 417 1170
-342 414 1170
-342 413 1173
-343 411 1176
-345 411 1182
-344 407 1179
-345 406 1185
-346 405 1189
-347 404 1193
-348 402 1196
-350 401 1203
-350 399 1205
-351 398 1208
-342 424 1159
-343 423 1163
-344 421 1166
-343 418 1165
-345 417 1170
-345 415 1172
-346 414 1175
-346 412 1178
-348 412 1185
-349 410 1189
-349 408 1189
-348 404 1187
-350 404 1193
-350 401 1194
-352 401 1200
-354 400 1207
-353 397 1207
-342 429 1150
-345 430 1159
-345 427 1160
-346 426 1163
-345 423 1162
-346 421 1165
-346 418 1165
-348 419 1173
-348 415 1172
-349 415 1179
-350 413 1180
-351 412 1186
-351 410 1186
-351 408 1188
-352 406 1190
-353 405 1196
-354 403 1200
-356 402 1205
-356 401 1208
-342 435 1138
-343 434 1142
-345 434 1148
-346 432 1151
-346 430 1152
-348 430 1160
-346 426 1155
-347 424 1159
-346 421 1156
-348 420 1162
-347 417 1161
-349 417 1167
-350 415 1171
-352 415 1179
-353 414 1184
-355 414 1190
-355 411 1191
-356 410 1195
-356 407 1194
-358 407 1201
-357 404 1200
-358 403 1205
-359 401 1209
-342 440 1128
-343 438 1132
-344 437 1135
-346 437 1143
-347 436 1146
-347 433 1145
-348 432 1151
-348 430 1152
-350 430 1159
-349 426 1156
-350 425 1160
-348 420 1155
-350 420 1161
-350 417 1161
-352 417 1168
-353 416 1172
-355 416 1179
-355 414 1182
-356 412 1185
-357 411 1189
-357 409 1190
-360 409 1198
-361 408 1203
-362 406 1207
-362 404 1209
-342 452 1113
-342 450 1114
-342 448 1115
-343 446 1118
-343 445 1121
-344 444 1124
-344 441 1125
-346 441 1132
-348 441 1138
-348 439 1140
-349 438 1144
-351 438 1150
-351 436 1152
-352 434 1155
-352 431 1155
-351 428 1154
-351 425 1153
-352 424 1158
-350 420 1153
-351 419 1157
-351 416 1157
-354 416 1165
-355 415 1170
-356 415 1176
-358 413 1180
-359 413 1186
-360 411 1190
-362 411 1197
-364 411 1205
-364 408 1204
-365 407 1208
-342 456 1103
-344 457 1111
-344 455 1113
-344 453 1114
-346 452 1118
-345 448 1116
-345 447 1119
-346 446 1123
-348 445 1127
-348 443 1130
-350 443 1135
-350 441 1138
-352 440 1143
-351 438 1143
-353 437 1148
-353 435 1150
-353 433 1151
-353 430 1151
-355 429 1156
-354 426 1154
-353 423 1153
-354 421 1155
-354 419 1157
-355 418 1161
-357 417 1167
-358 416 1172
-359 415 1177
-360 413 1179
-361 412 1182
-363 411 1189
-364 410 1193
-366 410 1202
-367 408 1204
-368 404 1209
-342 458 1094
-342 456 1096
-344 456 1101
-347 458 1112
-348 456 1115
-348 454 1116
-347 451 1115
-349 451 1121
-350 449 1124
-350 447 1126
-351 447 1131
-352 445 1134
-352 443 1136
-353 441 1138
-353 439 1140
-354 438 1143
-355 437 1148
-356 436 1151
-357 434 1153
-358 433 1158
-357 430 1157
-358 427 1158
-357 424 1156
-357 422 1157
-357 419 1157
-359 420 1166
-360 418 1169
-361 416 1172
-363 416 1180
-363 414 1182
-364 412 1184
-367 414 1196
-367 411 1196
-368 410 1200
-370 409 1207
-371 405 1209
-342 472 1082
-343 471 1087
-342 467 1084
-343 466 1087
-346 458 1100
-349 459 1109
-350 458 1113
-351 458 1119
-351 455 1118
-352 454 1121
-352 452 1123
-352 450 1125
-353 449 1129
-355 448 1133
-356 447 1137
-355 444 1137
-356 443 1141
-357 440 1142
-357 439 1144
-357 436 1145
-358 435 1148
-360 435 1155
-360 433 1157
-360 430 1158
-359 427 1155
-359 424 1156
-360 423 1159
-360 420 1159
-362 420 1166
-363 419 1170
-366 420 1181
-366 417 1180
-366 415 1183
-367 413 1184
-367 411 1187
-369 410 1193
-370 409 1198
-371 408 1201
-345 472 1082
-347 473 1090
-346 469 1087
-346 467 1089
-346 465 1090
-351 460 1109
-351 457 1109
-353 457 1116
-353 454 1116
-355 455 1125
-355 452 1124
-358 453 1133
-358 451 1135
-358 449 1137
-359 448 1139
-358 444 1138
-359 443 1141
-359 441 1143
-360 439 1145
-361 438 1150
-364 439 1158
-364 436 1159
-364 434 1159
-365 432 1163
-365 430 1164
-364 427 1162
-363 423 1160
-363 421 1162
-365 420 1166
-368 422 1178
-368 419 1179
-368 417 1179
-371 417 1189
-370 414 1188
-372 413 1192
-373 412 1198
-373 409 1197
-375 409 1204
-349 474 1087
-350 473 1091
-349 470 1089
-350 469 1093
-350 467 1094
-351 465 1097
-355 461 1113
-355 459 1113
-355 457 1115
-355 454 1114
-356 454 1120
-357 453 1124
-359 451 1128
-361 452 1135
-361 450 1138
-362 448 1140
-362 446 1141
-363 444 1144
-363 442 1145
-363 440 1148
-363 437 1147
-365 438 1155
-365 435 1156
-367 435 1163
-368 433 1164
-367 430 1162
-365 425 1158
-366 423 1160
-368 423 1167
-370 423 1174
-369 420 1173
-371 419 1178
-372 418 1182
-373 416 1186
-371 412 1182
-373 412 1189
-375 411 1194
-375 409 1195
-377 408 1201
-350 475 1083
-351 475 1087
-353 474 1092
-352 471 1090
-352 469 1093
-353 467 1094
-354 466 1099
-355 466 1104
-357 466 1110
-358 464 1113
-358 462 1114
-358 460 1115
-358 457 1115
-359 456 1119
-359 454 1121
-362 455 1130
-362 452 1130
-364 453 1138
-364 451 1139
-363 447 1137
-364 445 1138
-365 444 1143
-365 441 1143
-366 441 1149
-368 440 1154
-368 438 1156
-369 436 1158
-373 439 1172
-371 434 1167
-372 433 1170
-370 428 1165
-370 425 1165
-372 425 1171
-373 424 1175
-373 422 1177
-374 420 1181
-376 420 1188
-376 417 1188
-375 414 1186
-377 413 1192
-378 412 1197
-379 410 1199
-380 409 1204
-354 477 1086
-355 476 1090
-356 475 1094
-355 472 1093
-356 470 1095
-356 468 1096
-357 467 1101
-359 467 1106
-361 467 1113
-362 467 1118
-362 464 1118
-362 461 1118
-360 457 1115
-361 455 1117
-361 454 1119
-363 453 1124
-364 452 1128
-365 451 1132
-366 450 1136
-367 449 1140
-366 445 1139
-368 445 1145
-369 443 1147
-370 442 1151
-369 439 1151
-371 439 1157
-371 437 1158
-375 438 1170
-375 436 1171
-375 433 1170
-374 430 1169
-374 427 1170
-373 424 1168
-376 425 1178
-377 423 1181
-378 421 1183
-379 420 1187
-378 417 1186
-377 413 1184
-379 413 1190
-379 411 1192
-384 413 1206
-384 411 1208
-356 481 1083
-356 479 1085
-357 479 1089
-358 477 1092
-358 475 1094
-358 472 1093
-358 471 1096
-359 469 1098
-360 468 1102
-362 469 1110
-364 469 1116
-365 467 1118
-364 464 1117
-365 462 1120
-363 458 1115
-364 456 1118
-364 455 1121
-366 454 1127
-367 453 1131
-368 452 1134
-368 450 1136
-369 448 1138
-370 446 1141
-370 445 1143
-370 442 1143
-373 443 1152
-372 439 1150
-374 439 1156
-376 439 1164
-377 438 1169
-378 437 1172
-379 435 1174
-377 430 1169
-377 428 1172
-377 425 1170
-379 425 1177
-380 424 1182
-382 423 1187
-383 422 1193
-384 421 1196
-383 417 1194
-385 416 1199
-386 415 1205
-359 485 1086
-359 483 1086
-360 481 1089
-361 481 1094
-362 479 1096
-362 477 1097
-362 474 1097
-362 472 1099
-362 470 1099
-363 468 1102
-365 469 1109
-367 469 1117
-367 467 1118
-368 465 1120
-366 461 1117
-366 459 1117
-366 456 1117
-367 455 1121
-368 453 1124
-371 454 1133
-371 453 1136
-372 451 1138
-372 448 1138
-372 447 1141
-373 446 1145
-374 444 1148
-375 442 1151
-375 440 1152
-377 440 1159
-379 440 1165
-381 439 1171
-378 434 1165
-381 434 1173
-380 431 1170
-380 429 1172
-380 426 1173
-382 426 1179
-383 424 1182
-386 425 1192
-387 424 1197
-388 422 1199
-387 418 1197
-388 417 1201
-389 416 1206
-362 490 1084
-362 488 1086
-363 487 1090
-364 486 1093
-365 485 1097
-365 483 1098
-365 481 1099
-365 478 1099
-365 475 1099
-365 473 1100
-365 471 1101
-367 471 1108
-368 470 1111
-369 469 1116
-371 469 1121
-371 466 1121
-369 461 1117
-369 459 1118
-370 458 1121
-371 457 1125
-372 456 1129
-374 455 1134
-375 454 1138
-375 451 1139
-375 449 1139
-375 447 1142
-375 445 1143
-376 443 1146
-377 442 1150
-380 443 1159
-381 442 1164
-381 439 1164
-383 439 1171
-383 437 1172
-383 434 1172
-381 430 1167
-383 428 1171
-384 427 1176
-385 426 1180
-386 425 1184
-389 426 1194
-391 425 1200
-392 423 1203
-392 421 1204
-393 420 1209
-365 491 1085
-365 490 1088
-367 489 1093
-368 488 1096
-368 486 1099
-369 485 1102
-370 484 1106
-369 480 1104
-369 477 1103
-370 476 1107
-370 474 1107
-371 473 1112
-371 471 1114
-374 471 1121
-373 468 1119
-374 467 1123
-372 463 1119
-374 462 1124
-372 457 1119
-374 457 1125
-375 456 1129
-376 455 1134
-378 454 1139
-378 452 1140
-377 449 1140
-379 449 1146
-379 446 1146
-381 447 1154
-381 444 1154
-383 444 1160
-384 442 1164
-386 442 1169
-385 439 1169
-386 437 1172
-387 436 1175
-385 431 1169
-385 429 1171
-388 429 1179
-388 427 1182
-391 427 1190
-393 427 1197
-395 427 1205
-396 425 1207
-396 423 1208
-367 493 1083
-367 492 1086
-369 491 1090
-371 491 1097
-371 489 1099
-373 489 1104
-372 486 1104
-373 484 1106
-373 482 1108
-372 478 1105
-374 478 1111
-374 476 1112
-374 474 1114
-375 473 1118
-377 473 1123
-376 469 1120
-378 469 1128
-376 464 1123
-377 463 1125
-376 459 1124
-377 458 1126
-378 457 1132
-379 456 1136
-380 454 1138
-380 452 1139
-381 451 1143
-382 449 1146
-381 446 1145
-383 445 1150
-384 445 1155
-384 442 1156
-385 441 1159
-387 441 1166
-388 439 1170
-388 436 1169
-388 434 1171
-390 433 1176
-389 430 1174
-390 429 1178
-391 428 1183
-394 428 1192
-397 428 1200
-399 428 1207
-369 495 1082
-371 495 1087
-371 494 1090
-372 493 1094
-374 493 1100
-375 491 1103
-376 489 1105
-376 487 1106
-376 485 1107
-376 483 1108
-377 482 1112
-376 478 1110
-377 477 1113
-378 476 1118
-378 473 1118
-379 472 1121
-379 469 1121
-380 469 1127
-380 466 1126
-381 464 1129
-381 462 1131
-380 459 1129
-381 457 1132
-381 455 1133
-382 454 1137
-383 452 1139
-384 451 1143
-384 449 1145
-385 447 1147
-386 446 1151
-386 444 1153
-387 442 1155
-388 441 1159
-389 440 1164
-390 438 1166
-392 438 1174
-393 436 1176
-394 435 1180
-392 431 1176
-395 431 1185
-397 430 1190
-400 432 1201
-401 430 1205
-372 496 1083
-374 496 1088
-375 495 1093
-376 495 1098
-377 493 1101
-378 492 1103
-378 490 1105
-379 488 1107
-379 486 1110
-378 482 1107
-380 482 1112
-379 479 1112
-380 477 1114
-380 475 1116
-380 472 1115
-381 472 1121
-381 469 1121
-382 468 1123
-382 466 1125
-383 464 1128
-383 461 1128
-383 460 1130
-383 457 1131
-383 455 1132
-384 454 1136
-385 452 1138
-386 451 1142
-387 449 1145
-387 447 1147
-387 445 1148
-388 443 1150
-387 440 1149
-389 439 1154
-391 439 1161
-394 440 1170
-397 440 1179
-397 439 1182
-398 437 1185
-399 435 1188
-400 435 1193
-401 432 1195
-402 431 1199
-375 499 1082
-376 498 1086
-377 497 1091
-379 497 1097
-380 496 1100
-380 494 1102
-381 493 1105
-380 490 1104
-380 487 1105
-382 486 1109
-381 484 1109
-381 481 1110
-382 480 1113
-383 478 1116
-382 475 1114
-383 473 1117
-383 472 1119
-383 469 1119
-384 468 1123
-385 466 1126
-385 464 1127
-387 463 1132
-387 461 1133
-387 458 1133
-387 456 1134
-387 454 1136
-388 453 1139
-389 452 1144
-390 450 1146
-391 448 1149
-391 446 1151
-392 445 1154
-391 441 1152
-392 440 1155
-394 439 1161
-396 440 1170
-398 439 1174
-399 438 1179
-403 440 1192
-403 437 1191
-405 436 1197
-406 435 1201
-408 435 1209
-378 502 1084
-378 500 1085
-380 500 1091
-381 500 1096
-382 498 1099
-383 497 1102
-383 495 1104
-383 492 1104
-384 491 1106
-383 487 1105
-384 486 1108
-383 483 1107
-384 481 1109
-384 479 1111
-384 477 1111
-385 476 1115
-386 474 1118
-386 471 1118
-386 469 1119
-387 468 1122
-386 465 1122
-388 464 1127
-388 462 1127
-389 461 1133
-390 459 1134
-390 457 1137
-391 456 1141
-391 454 1141
-393 453 1146
-393 451 1148
-394 449 1151
-395 448 1154
-395 445 1155
-394 442 1154
-397 442 1161
-399 443 1170
-399 440 1170
-402 440 1178
-407 444 1195
-406 440 1192
-408 440 1198
-409 438 1202
-409 435 1202
-381 505 1083
-382 504 1087
-381 501 1087
-383 501 1092
-384 500 1096
-386 500 1101
-386 498 1103
-386 496 1105
-386 493 1104
-386 490 1105
-386 489 1107
-385 485 1105
-386 483 1106
-386 481 1108
-387 479 1111
-387 478 1113
-389 477 1119
-389 475 1120
-389 472 1120
-388 469 1118
-389 468 1122
-389 465 1122
-390 464 1126
-391 463 1130
-393 463 1136
-393 460 1136
-394 458 1139
-394 456 1140
-394 454 1142
-395 452 1144
-396 452 1149
-398 451 1154
-399 450 1159
-400 449 1163
-401 447 1166
-402 445 1168
-402 444 1171
-403 442 1174
-404 440 1177
-407 441 1185
-409 440 1192
-410 439 1195
-412 439 1204
-412 436 1204
-383 505 1083
-384 504 1086
-385 503 1090
-385 501 1092
-387 501 1097
-387 498 1098
-388 497 1100
-388 495 1102
-388 492 1102
-388 490 1104
-389 489 1107
-389 486 1107
-389 484 1109
-389 482 1109
-389 479 1110
-390 478 1114
-392 478 1119
-392 475 1120
-392 473 1121
-391 470 1120
-390 466 1117
-391 465 1120
-391 463 1122
-393 462 1127
-395 462 1133
-396 461 1138
-397 459 1140
-397 457 1141
-399 456 1147
-398 453 1146
-399 452 1149
-400 451 1153
-403 452 1163
-404 450 1166
-405 449 1170
-407 448 1176
-404 443 1169
-408 444 1180
-409 443 1184
-410 441 1186
-415 444 1201
-413 440 1198
-416 440 1205
-416 437 1206
-386 506 1083
-386 504 1086
-387 502 1088
-388 501 1091
-389 501 1096
-390 499 1098
-390 496 1099
-390 494 1100
-390 492 1101
-390 490 1102
-390 487 1103
-391 486 1106
-391 484 1107
-391 481 1108
-392 480 1112
-394 480 1118
-395 479 1122
-396 477 1123
-395 474 1123
-394 471 1121
-393 467 1119
-395 466 1123
-395 464 1125
-397 463 1130
-397 462 1133
-399 462 1139
-400 460 1142
-400 457 1142
-401 457 1147
-402 455 1149
-402 453 1151
-405 453 1159
-407 453 1166
-408 451 1168
-409 450 1173
-411 449 1178
-411 447 1180
-411 445 1180
-412 444 1185
-410 439 1179
-415 442 1194
-414 438 1191
-419 440 1206
-418 437 1205
-389 504 1086
-390 504 1090
-391 502 1092
-392 501 1096
-392 499 1097
-391 495 1096
-392 494 1098
-392 491 1098
-392 489 1101
-394 488 1105
-394 487 1107
-394 485 1109
-395 483 1111
-395 481 1112
-396 480 1116
-397 479 1120
-399 478 1126
-397 473 1120
-397 471 1122
-397 469 1122
-397 466 1123
-398 465 1126
-399 464 1130
-400 462 1132
-401 461 1137
-402 460 1140
-403 458 1144
-404 457 1147
-405 456 1151
-406 455 1155
-407 453 1158
-409 452 1163
-411 452 1170
-413 452 1177
-413 450 1178
-415 449 1184
-414 445 1180
-414 443 1183
-418 445 1194
-419 443 1197
-421 443 1204
-422 441 1206
-390 506 1082
-391 504 1084
-392 503 1088
-393 501 1090
-394 500 1094
-393 497 1094
-393 495 1094
-393 492 1095
-393 490 1096
-395 489 1100
-395 488 1103
-397 487 1107
-397 485 1109
-398 484 1112
-398 481 1113
-399 480 1117
-400 479 1121
-400 477 1121
-400 474 1121
-401 473 1125
-401 470 1125
-402 469 1128
-402 467 1130
-403 465 1133
-403 463 1135
-405 463 1141
-404 459 1138
-407 460 1147
-409 460 1153
-409 457 1153
-410 456 1157
-412 456 1165
-415 456 1172
-414 452 1170
-414 450 1171
-415 449 1176
-417 448 1180
-418 447 1184
-418 445 1186
-419 443 1189
-421 442 1194
-424 443 1205
-425 442 1208
-394 507 1084
-394 505 1086
-395 503 1088
-396 503 1093
-396 500 1094
-396 497 1093
-395 495 1093
-397 494 1097
-397 491 1098
-398 490 1101
-399 489 1105
-401 489 1112
-401 487 1112
-401 484 1113
-400 481 1112
-402 481 1117
-402 478 1118
-402 476 1120
-403 475 1123
-404 473 1125
-404 471 1127
-406 470 1132
-406 469 1134
-407 467 1137
-406 464 1136
-409 464 1143
-407 460 1140
-410 460 1147
-410 458 1149
-415 461 1164
-415 458 1163
-416 457 1168
-417 456 1171
-416 452 1169
-418 452 1175
-417 448 1173
-418 447 1177
-420 447 1184
-423 447 1192
-424 445 1195
-426 445 1202
-427 443 1205
-428 442 1209
-396 509 1083
-397 508 1086
-398 507 1090
-398 505 1091
-399 503 1092
-399 500 1093
-399 498 1094
-398 495 1094
-400 494 1098
-400 492 1099
-402 492 1105
-402 490 1106
-403 489 1111
-403 486 1110
-405 486 1116
-404 482 1114
-404 480 1116
-405 479 1119
-406 478 1123
-407 476 1125
-408 475 1130
-408 473 1131
-411 474 1139
-410 470 1138
-411 469 1141
-409 465 1137
-411 464 1142
-411 461 1142
-416 464 1156
-415 461 1156
-419 463 1167
-421 462 1173
-422 461 1177
-421 457 1174
-420 453 1171
-419 450 1169
-420 449 1175
-422 448 1180
-426 450 1191
-426 447 1192
-428 447 1198
-429 446 1203
-430 444 1206
-400 511 1085
-400 509 1088
-402 508 1092
-402 506 1094
-402 504 1094
-402 501 1094
-402 500 1097
-402 496 1096
-404 496 1102
-403 493 1101
-405 494 1108
-406 492 1110
-406 489 1111
-406 487 1112
-406 485 1113
-407 483 1115
-408 482 1119
-407 479 1118
-410 479 1126
-410 477 1127
-411 476 1131
-413 475 1136
-414 474 1140
-414 472 1141
-416 471 1146
-415 468 1144
-417 467 1150
-415 463 1145
-416 462 1150
-419 463 1160
-424 465 1173
-423 462 1171
-425 461 1177
-424 457 1174
-423 454 1173
-424 453 1177
-425 451 1180
-427 451 1186
-431 452 1197
-433 452 1203
-433 449 1204
-433 446 1204
-401 512 1082
-402 510 1084
-403 509 1088
-403 507 1089
-403 505 1090
-405 504 1095
-405 502 1095
-405 500 1098
-405 497 1097
-407 498 1105
-408 496 1106
-409 495 1111
-409 492 1111
-410 491 1115
-410 489 1115
-409 486 1114
-411 485 1120
-411 482 1119
-411 481 1122
-413 480 1127
-413 477 1127
-415 478 1135
-416 476 1138
-418 476 1144
-418 473 1144
-419 472 1148
-418 469 1147
-421 470 1155
-420 466 1152
-422 466 1160
-425 467 1168
-426 465 1172
-427 463 1174
-430 464 1182
-427 459 1177
-427 456 1177
-427 453 1176
-429 453 1183
-434 455 1197
-436 455 1204
-435 452 1202
-437 451 1209
-436 447 1206
-405 514 1085
-405 512 1086
-406 511 1090
-407 509 1092
-408 508 1095
-408 506 1097
-409 504 1100
-409 502 1101
-409 500 1102
-410 499 1106
-411 497 1108
-412 495 1111
-413 494 1115
-413 492 1115
-412 489 1115
-413 487 1116
-414 486 1121
-413 482 1118
-415 482 1125
-417 482 1130
-417 480 1132
-420 480 1139
-419 477 1139
-421 476 1144
-421 475 1146
-423 474 1152
-423 472 1153
-425 471 1158
-427 471 1164
-428 469 1167
-428 466 1167
-430 467 1175
-430 464 1174
-433 464 1183
-431 460 1180
-433 459 1185
-431 455 1181
-433 455 1187
-436 455 1195
-440 457 1208
-440 454 1209
-407 515 1082
-408 514 1085
-407 511 1085
-408 510 1087
-408 507 1088
-410 507 1093
-410 505 1096
-411 504 1099
-413 503 1103
-413 502 1106
-414 500 1108
-414 498 1109
-416 497 1114
-416 495 1116
-416 492 1116
-416 491 1118
-417 489 1120
-417 487 1122
-417 484 1123
-419 484 1129
-419 482 1129
-421 482 1136
-422 480 1138
-423 479 1142
-424 477 1145
-426 477 1151
-427 475 1154
-429 475 1160
-433 477 1171
-433 475 1173
-432 471 1171
-431 468 1170
-432 466 1173
-433 465 1177
-435 464 1182
-436 462 1185
-436 460 1187
-436 458 1187
-438 457 1193
-438 455 1194
-442 456 1205
-443 455 1209
-410 519 1083
-410 517 1084
-411 515 1086
-410 512 1086
-412 511 1090
-411 508 1090
-413 508 1094
-414 506 1097
-415 506 1102
-416 504 1104
-417 503 1108
-417 500 1108
-417 498 1109
-417 496 1110
-418 494 1113
-420 494 1120
-420 492 1120
-420 490 1122
-421 488 1124
-421 486 1126
-421 483 1126
-422 482 1130
-424 482 1135
-425 481 1140
-426 479 1143
-426 477 1143
-428 477 1150
-431 477 1157
-433 477 1164
-435 477 1170
-436 475 1174
-434 471 1170
-435 469 1173
-435 467 1174
-436 465 1176
-439 465 1184
-437 461 1181
-441 463 1192
-441 460 1193
-441 458 1194
-443 457 1200
-445 456 1205
-414 520 1085
-414 518 1087
-414 516 1087
-413 512 1086
-413 510 1086
-414 509 1090
-415 508 1094
-416 507 1097
-417 505 1100
-419 505 1106
-419 503 1107
-419 500 1107
-422 501 1116
-421 498 1115
-421 496 1116
-422 494 1119
-423 493 1122
-425 493 1128
-424 489 1127
-425 487 1128
-425 486 1131
-426 483 1132
-428 483 1138
-428 482 1141
-430 481 1146
-429 478 1145
-431 477 1150
-431 475 1152
-437 478 1167
-438 477 1171
-439 476 1175
-439 474 1176
-438 470 1173
-438 467 1173
-439 465 1177
-442 466 1185
-444 465 1191
-444 463 1193
-444 460 1193
-445 459 1196
-446 457 1199
-447 455 1202
-447 453 1204
-416 522 1083
-417 521 1086
-417 519 1088
-418 518 1092
-417 515 1090
-417 512 1091
-417 510 1092
-418 509 1095
-419 507 1098
-421 507 1103
-421 504 1104
-422 504 1108
-424 503 1114
-422 499 1110
-424 498 1115
-424 496 1116
-425 495 1119
-427 494 1124
-427 493 1127
-426 489 1125
-429 490 1133
-428 486 1131
-430 485 1136
-431 484 1139
-432 483 1144
-433 481 1146
-431 477 1142
-432 476 1146
-436 477 1156
-437 476 1160
-441 477 1170
-441 475 1173
-442 473 1175
-441 470 1173
-442 469 1178
-443 467 1179
-445 467 1187
-445 464 1188
-448 464 1195
-448 462 1197
-449 461 1200
-450 458 1202
-450 456 1204
-450 453 1204
-419 523 1084
-419 521 1085
-419 519 1086
-419 517 1088
-420 514 1089
-419 512 1089
-419 509 1090
-421 509 1096
-424 510 1103
-423 507 1102
-426 507 1109
-426 505 1110
-425 502 1110
-429 504 1120
-427 499 1116
-428 498 1120
-431 499 1128
-430 495 1126
-431 494 1129
-432 492 1132
-432 490 1133
-434 489 1138
-436 489 1145
-436 487 1146
-437 485 1148
-434 480 1143
-435 479 1146
-434 475 1143
-437 476 1153
-437 474 1154
-443 477 1170
-445 477 1176
-445 474 1175
-445 472 1177
-446 470 1180
-447 468 1183
-450 469 1192
-449 465 1189
-451 465 1197
-452 463 1198
-453 462 1202
-454 460 1205
-454 454 1206
-421 523 1084
-422 521 1085
-422 520 1088
-423 518 1091
-423 516 1091
-423 513 1091
-423 511 1093
-424 509 1095
-425 509 1100
-427 508 1105
-428 507 1108
-428 505 1110
-430 504 1114
-431 504 1119
-434 504 1126
-433 500 1124
-433 498 1126
-433 496 1127
-433 494 1128
-435 493 1133
-436 492 1137
-437 491 1141
-439 490 1145
-440 488 1148
-440 486 1149
-437 481 1144
-437 478 1144
-437 475 1144
-440 476 1152
-443 476 1160
-445 477 1168
-446 475 1170
-448 474 1176
-448 471 1176
-449 470 1180
-450 469 1185
-452 469 1190
-453 467 1193
-455 466 1198
-456 464 1201
-457 463 1206
-424 524 1084
-424 521 1084
-425 521 1089
-425 518 1089
-427 517 1094
-427 515 1095
-428 514 1099
-428 511 1099
-430 511 1104
-431 510 1108
-432 509 1111
-432 507 1113
-434 506 1118
-434 504 1120
-436 504 1125
-438 503 1130
-438 501 1132
-437 498 1131
-437 495 1130
-438 494 1135
-441 495 1143
-443 494 1148
-444 493 1152
-444 491 1153
-444 488 1153
-442 483 1149
-442 480 1149
-442 478 1151
-444 477 1155
-448 480 1168
-447 476 1166
-450 476 1173
-452 476 1179
-454 475 1185
-453 472 1183
-454 471 1188
-455 469 1191
-456 468 1194
-457 465 1196
-459 465 1202
-460 464 1206
-427 522 1085
-429 521 1090
-429 520 1092
-430 518 1095
-429 514 1093
-430 514 1098
-431 512 1100
-433 512 1106
-434 511 1109
-437 512 1118
-436 508 1116
-437 507 1119
-438 505 1122
-440 506 1129
-441 504 1131
-441 501 1132
-441 499 1133
-442 498 1136
-442 495 1136
-444 495 1144
-446 495 1150
-448 495 1156
-448 492 1155
-447 488 1153
-446 485 1152
-447 484 1156
-449 482 1160
-451 483 1167
-451 480 1168
-453 480 1174
-455 479 1178
-455 477 1181
-457 476 1186
-458 474 1189
-458 472 1190
-459 470 1192
-459 467 1193
-460 466 1196
-462 465 1202
-463 464 1206
-430 523 1086
-431 521 1089
-433 522 1096
-434 520 1099
-433 517 1098
-436 518 1105
-436 516 1107
-439 517 1115
-439 514 1115
-442 515 1123
-439 509 1117
-441 509 1123
-441 507 1124
-443 506 1129
-444 505 1132
-444 503 1134
-445 501 1137
-445 499 1138
-446 497 1141
-450 499 1151
-450 496 1151
-452 496 1157
-451 492 1155
-450 488 1153
-450 486 1155
-452 486 1160
-453 484 1164
-454 483 1167
-457 483 1175
-458 482 1179
-460 481 1184
-458 477 1181
-461 478 1190
-462 476 1192
-462 473 1192
-462 471 1194
-462 468 1195
-463 466 1197
-464 465 1201
-466 464 1206
-437 523 1098
-436 520 1097
-437 518 1100
-439 518 1106
-441 518 1111
-443 518 1118
-443 516 1119
-446 516 1126
-444 512 1123
-446 512 1128
-446 509 1129
-448 509 1135
-447 506 1134
-449 505 1138
-448 501 1137
-449 500 1140
-449 497 1140
-449 495 1142
-451 494 1147
-451 492 1148
-452 491 1152
-453 489 1154
-454 487 1157
-455 487 1162
-459 488 1172
-459 486 1173
-463 487 1183
-461 483 1180
-463 482 1185
-464 481 1189
-465 479 1193
-464 475 1189
-465 473 1192
-465 472 1195
-466 469 1197
-466 467 1199
-468 466 1204
-442 524 1105
-443 522 1108
-445 522 1113
-445 520 1114
-447 520 1121
-447 517 1121
-448 516 1125
-448 514 1126
-449 512 1129
-450 511 1132
-452 511 1138
-452 508 1138
-452 505 1139
-452 503 1139
-452 501 1142
-452 498 1141
-454 498 1147
-458 499 1157
-457 496 1157
-458 494 1159
-457 491 1159
-459 491 1164
-459 488 1165
-460 487 1168
-462 486 1174
-464 485 1179
-464 483 1181
-467 483 1188
-466 480 1187
-469 480 1194
-467 475 1189
-466 472 1189
-468 472 1195
-468 469 1195
-446 523 1109
-448 523 1115
-448 521 1116
-450 520 1121
-450 518 1122
-452 517 1127
-451 514 1126
-453 514 1131
-454 512 1135
-455 511 1139
-456 510 1142
-457 508 1145
-455 504 1141
-455 501 1142
-457 501 1147
-457 499 1149
-459 498 1154
-458 495 1153
-461 495 1161
-459 490 1156
-462 491 1164
-463 490 1168
-465 489 1173
-465 487 1174
-466 485 1178
-468 485 1183
-469 483 1186
-469 480 1187
-469 473 1190
-450 524 1111
-451 524 1116
-451 521 1116
-452 520 1119
-452 518 1121
-454 517 1125
-453 514 1125
-455 513 1129
-457 513 1135
-458 512 1139
-459 510 1142
-460 509 1145
-459 505 1143
-459 503 1144
-459 500 1145
-461 500 1152
-461 498 1152
-464 498 1159
-465 496 1162
-466 495 1165
-466 492 1167
-467 490 1169
-468 489 1173
-469 488 1177
-454 524 1116
-454 521 1116
-456 521 1122
-455 518 1120
-456 516 1123
-456 514 1125
-457 513 1129
-460 513 1135
-461 512 1140
-462 511 1143
-463 510 1147
-464 507 1148
-463 505 1148
-462 501 1146
-464 501 1152
-466 500 1157
-466 498 1158
-465 494 1156
-468 495 1165
-457 523 1118
-458 521 1120
-458 518 1121
-461 519 1129
-460 515 1127
-459 513 1127
-460 511 1130
-464 512 1139
-464 510 1141
-467 511 1149
-466 508 1148
-469 508 1154
-468 505 1154
-469 503 1157
-469 501 1158
-463 523 1125
-463 521 1126
-462 518 1125
-462 515 1125
-463 514 1130
-464 513 1133
-468 514 1142
-469 512 1145
-465 523 1123
-467 523 1129
-465 518 1125
-467 518 1131
-466 515 1130
-469 515 1137
-469 522 1127
-468 519 1127
-342 543 1017
-342 539 1016
-342 537 1016
-342 532 1018
-342 581 992
-342 558 1000
-342 556 1001
-343 555 1005
-342 552 1004
-343 551 1007
-342 548 1006
-343 547 1010
-344 546 1013
-344 545 1015
-344 542 1015
-345 540 1017
-345 539 1019
-345 536 1019
-344 533 1019
-345 531 1020
-345 529 1022
-345 527 1022
-345 525 1024
-346 525 1029
-342 586 981
-343 586 987
-344 586 991
-344 583 991
-345 582 993
-343 577 990
-344 576 992
-342 571 989
-344 571 994
-344 569 995
-344 568 997
-344 565 997
-343 561 996
-344 560 999
-345 560 1003
-346 559 1006
-346 557 1008
-345 554 1006
-346 552 1009
-346 550 1010
-346 548 1010
-347 547 1014
-348 546 1017
-348 545 1020
-348 543 1021
-349 542 1025
-349 539 1024
-350 538 1027
-348 533 1024
-349 532 1027
-348 529 1026
-349 528 1029
-350 527 1032
-351 526 1036
-352 526 1041
-353 525 1044
-344 639 958
-342 633 954
-342 631 954
-342 630 957
-342 627 957
-342 624 957
-343 624 961
-343 623 964
-343 620 964
-343 615 965
-342 603 968
-342 600 967
-342 593 970
-342 585 975
-344 586 981
-345 586 985
-347 586 991
-347 584 991
-348 584 997
-348 582 998
-347 578 996
-346 573 992
-346 572 994
-346 569 995
-347 569 999
-347 566 999
-347 565 1001
-347 561 1000
-348 562 1006
-348 559 1006
-349 558 1009
-349 555 1009
-349 553 1010
-350 553 1014
-350 550 1014
-350 548 1016
-351 547 1019
-351 546 1021
-352 544 1023
-352 543 1026
-353 541 1028
-354 542 1034
-353 537 1031
-353 535 1032
-353 533 1032
-354 531 1035
-354 530 1038
-355 529 1041
-355 527 1042
-356 525 1044
-345 637 955
-345 634 955
-345 633 957
-344 628 954
-345 629 959
-344 625 958
-346 625 963
-346 623 963
-347 622 967
-345 618 964
-346 616 966
-344 611 962
-346 612 969
-346 611 971
-346 608 971
-345 603 968
-345 602 970
-345 600 972
-345 598 973
-344 593 970
-343 589 968
-343 587 969
-343 586 971
-345 587 977
-347 587 982
-348 587 987
-348 585 988
-349 584 992
-351 586 999
-348 577 989
-349 577 993
-349 575 995
-350 574 997
-349 570 996
-351 571 1002
-350 568 1001
-350 566 1003
-350 563 1003
-352 564 1010
-352 562 1011
-354 562 1016
-353 559 1015
-354 559 1019
-353 554 1016
-353 552 1018
-354 551 1020
-354 549 1022
-355 549 1026
-355 546 1027
-357 547 1033
-358 545 1035
-358 543 1036
-358 541 1038
-358 539 1039
-357 535 1037
-359 536 1044
-359 533 1043
-359 531 1045
-360 530 1047
-361 529 1051
-361 527 1052
-347 638 955
-348 636 957
-348 634 958
-349 633 961
-349 631 962
-349 629 964
-350 629 968
-348 624 964
-349 623 967
-347 616 961
-348 616 965
-348 614 966
-348 613 969
-349 611 971
-350 610 974
-349 607 973
-349 605 974
-349 602 975
-348 599 974
-348 597 975
-348 594 975
-348 592 976
-348 589 976
-349 590 982
-350 588 983
-351 588 988
-352 587 991
-352 586 994
-353 584 995
-353 582 997
-354 582 1001
-353 577 998
-352 574 998
-354 575 1004
-354 572 1004
-354 570 1005
-354 568 1006
-355 567 1009
-356 567 1014
-356 565 1015
-357 564 1019
-358 564 1023
-358 560 1022
-358 558 1022
-358 555 1023
-358 553 1024
-356 549 1021
-358 550 1028
-358 547 1028
-359 547 1032
-360 545 1034
-360 544 1037
-361 542 1039
-362 541 1042
-361 538 1042
-363 538 1046
-363 536 1048
-362 533 1047
-362 530 1048
-363 529 1051
-362 525 1049
-351 641 959
-350 636 956
-351 636 960
-351 633 960
-351 631 961
-351 630 964
-352 629 967
-352 627 968
-351 623 967
-351 620 966
-351 618 968
-351 615 968
-351 614 970
-352 612 972
-352 611 975
-352 608 975
-353 607 978
-351 603 975
-351 601 976
-351 598 976
-353 598 981
-353 596 982
-353 594 983
-353 592 985
-354 592 989
-354 589 989
-354 587 990
-355 586 994
-355 584 995
-355 581 995
-355 580 998
-356 579 1001
-357 578 1004
-357 577 1006
-358 576 1009
-357 572 1008
-358 570 1009
-358 569 1012
-359 568 1015
-360 567 1019
-362 568 1025
-361 565 1024
-363 565 1029
-362 561 1027
-361 557 1026
-362 556 1029
-362 554 1029
-362 552 1032
-362 550 1032
-363 549 1035
-363 546 1036
-363 545 1038
-363 542 1038
-365 542 1043
-365 540 1045
-366 539 1048
-366 537 1050
-366 535 1051
-366 532 1051
-367 531 1054
-367 530 1057
-368 528 1058
-368 525 1059
-352 641 954
-353 638 958
-353 635 958
-353 632 959
-354 633 964
-354 631 965
-354 628 966
-354 626 967
-353 621 964
-353 620 966
-354 618 968
-354 616 969
-355 616 973
-355 614 974
-355 613 977
-356 611 979
-357 610 982
-356 607 981
-358 608 987
-356 602 983
-357 601 986
-357 599 987
-358 598 990
-357 595 990
-358 594 993
-358 592 993
-358 589 994
-360 590 1000
-359 587 999
-359 585 1001
-359 583 1002
-361 583 1007
-360 580 1007
-361 579 1010
-361 576 1010
-362 576 1014
-361 572 1012
-361 570 1014
-362 569 1016
-364 569 1022
-365 569 1026
-365 566 1026
-365 565 1029
-365 563 1030
-365 560 1030
-365 558 1032
-366 556 1033
-365 553 1033
-365 550 1033
-366 549 1036
-365 547 1036
-366 545 1038
-366 543 1040
-367 543 1044
-369 542 1048
-369 540 1049
-369 538 1052
-369 535 1051
-369 533 1053
-369 531 1053
-369 529 1055
-370 527 1057
-370 526 1059
-355 644 954
-357 643 962
-354 636 955
-355 635 958
-356 634 961
-357 635 966
-356 630 964
-357 630 968
-357 628 969
-357 626 970
-356 622 968
-356 619 968
-356 617 970
-356 615 971
-358 615 975
-358 613 977
-359 613 981
-361 614 987
-360 610 985
-362 611 992
-361 608 991
-362 607 994
-360 601 990
-361 600 992
-361 598 994
-361 596 995
-363 596 1000
-361 591 997
-361 589 998
-362 588 1001
-362 587 1003
-363 586 1006
-363 583 1006
-364 582 1010
-364 581 1012
-365 579 1014
-366 579 1018
-365 575 1016
-364 571 1015
-365 570 1018
-366 569 1021
-367 568 1024
-367 567 1027
-368 566 1030
-367 561 1027
-368 561 1032
-367 557 1030
-368 557 1034
-369 555 1036
-369 553 1037
-368 549 1035
-368 547 1037
-368 545 1038
-369 544 1040
-370 543 1045
-370 541 1046
-372 541 1051
-372 539 1053
-372 537 1053
-372 534 1054
-373 534 1058
-373 531 1058
-374 530 1061
-375 529 1065
-375 526 1065
-359 649 956
-359 647 958
-359 645 960
-358 641 958
-358 638 957
-359 638 962
-359 635 962
-359 634 964
-358 630 963
-361 632 970
-359 626 966
-360 625 969
-360 624 972
-360 621 971
-360 620 974
-360 618 975
-361 617 978
-362 615 980
-361 612 980
-363 613 986
-364 613 990
-365 611 992
-365 610 995
-366 609 998
-365 605 995
-364 602 995
-364 600 996
-365 599 999
-365 596 1000
-366 595 1002
-366 593 1003
-366 592 1006
-367 590 1008
-366 587 1008
-367 586 1011
-367 583 1011
-368 583 1016
-369 582 1018
-369 580 1020
-369 578 1021
-369 576 1022
-369 572 1021
-369 570 1022
-370 570 1027
-370 568 1028
-370 565 1028
-370 563 1029
-370 561 1031
-371 559 1033
-372 558 1036
-371 555 1036
-371 553 1037
-371 551 1038
-372 549 1039
-371 546 1039
-373 546 1044
-372 543 1044
-374 544 1050
-374 541 1051
-375 540 1053
-374 536 1052
-374 534 1052
-375 532 1055
-374 530 1055
-376 529 1059
-376 527 1060
-377 526 1065
-361 650 957
-363 650 962
-362 646 961
-361 643 960
-361 639 959
-362 640 964
-361 636 962
-362 635 965
-362 632 965
-363 633 971
-363 629 970
-364 629 974
-364 627 976
-364 625 977
-365 624 979
-364 619 977
-364 618 980
-365 618 984
-366 617 987
-365 612 984
-368 615 993
-370 616 999
-370 614 1000
-370 612 1001
-369 609 1001
-368 604 998
-367 600 996
-368 600 1000
-368 597 1000
-369 597 1005
-369 594 1005
-370 594 1009
-370 591 1010
-372 591 1015
-370 587 1012
-370 585 1014
-372 585 1019
-372 584 1021
-372 581 1021
-373 579 1023
-371 575 1020
-372 574 1024
-372 571 1024
-373 571 1028
-373 568 1028
-373 566 1029
-373 564 1031
-374 562 1033
-374 560 1034
-375 559 1037
-375 557 1038
-374 554 1038
-374 551 1038
-375 550 1041
-375 548 1043
-376 547 1045
-376 545 1047
-377 544 1050
-377 542 1052
-378 540 1054
-378 538 1055
-378 536 1057
-378 534 1057
-378 532 1059
-379 531 1062
-379 528 1062
-379 526 1064
-381 526 1069
-366 651 963
-365 648 962
-365 646 964
-364 642 962
-365 641 966
-365 638 965
-366 638 969
-365 634 968
-364 631 967
-367 632 974
-366 629 974
-368 630 979
-367 626 977
-367 625 980
-368 622 981
-369 622 985
-368 618 983
-369 618 987
-369 616 989
-369 613 989
-371 615 997
-371 612 997
-372 612 1001
-370 607 997
-372 606 1001
-371 603 1001
-371 601 1002
-371 599 1003
-372 598 1007
-372 596 1008
-374 597 1014
-374 594 1014
-374 592 1016
-374 590 1016
-375 589 1020
-375 586 1019
-376 586 1024
-375 582 1022
-376 581 1025
-375 577 1023
-375 576 1026
-376 574 1028
-375 570 1026
-375 568 1028
-375 566 1029
-376 565 1032
-377 564 1036
-377 562 1036
-377 560 1038
-377 557 1038
-377 555 1039
-377 552 1039
-378 551 1042
-378 549 1044
-379 548 1047
-379 546 1049
-380 545 1052
-380 542 1052
-381 542 1056
-381 539 1056
-381 537 1058
-381 535 1059
-381 532 1059
-381 530 1060
-382 529 1063
-382 526 1064
-384 527 1070
-369 652 964
-369 651 966
-370 650 969
-369 645 967
-369 644 970
-368 640 968
-368 638 969
-368 636 970
-369 635 973
-369 633 974
-369 630 975
-370 630 979
-370 627 978
-370 625 980
-369 621 978
-370 620 982
-371 620 986
-371 617 986
-371 616 988
-373 617 994
-374 615 996
-374 614 999
-375 612 1001
-374 609 1000
-374 607 1002
-374 604 1001
-374 601 1002
-374 599 1003
-375 599 1008
-376 598 1010
-378 598 1016
-378 596 1017
-378 594 1018
-377 591 1018
-378 590 1021
-378 587 1021
-378 585 1023
-378 583 1023
-378 581 1025
-378 579 1026
-378 576 1027
-378 573 1026
-378 571 1027
-378 569 1029
-378 566 1029
-379 566 1033
-379 564 1035
-380 562 1036
-379 559 1036
-380 557 1038
-379 555 1038
-380 553 1041
-380 551 1042
-381 550 1044
-382 549 1048
-382 547 1049
-382 544 1050
-382 543 1052
-384 542 1056
-384 540 1057
-384 538 1059
-384 536 1061
-385 534 1062
-384 530 1060
-384 529 1063
-385 527 1065
-385 525 1067
-372 651 966
-372 649 968
-373 648 971
-374 648 975
-373 644 973
-371 639 970
-371 637 971
-372 635 973
-373 635 977
-373 633 979
-374 633 983
-374 629 982
-374 628 985
-373 624 982
-374 624 987
-375 622 989
-373 618 986
-375 618 992
-374 614 990
-377 616 998
-376 613 997
-376 610 997
-377 610 1001
-377 608 1003
-377 606 1004
-378 604 1006
-377 601 1006
-379 601 1010
-379 599 1011
-379 598 1014
-381 597 1018
-381 595 1019
-380 591 1018
-381 591 1022
-380 587 1021
-380 585 1022
-380 583 1023
-381 582 1026
-381 580 1027
-381 577 1027
-381 574 1027
-381 572 1029
-381 571 1031
-381 568 1031
-382 567 1035
-383 566 1037
-383 564 1039
-383 561 1039
-383 558 1039
-382 555 1039
-383 554 1042
-383 552 1043
-383 550 1044
-384 549 1048
-384 546 1048
-384 545 1050
-385 543 1053
-386 543 1057
-387 541 1059
-387 539 1061
-387 536 1061
-387 534 1061
-387 531 1062
-387 529 1062
-387 527 1064
-387 525 1066
-374 652 967
-375 651 970
-375 649 971
-376 649 975
-376 646 975
-375 641 973
-374 638 972
-374 636 973
-375 635 977
-376 635 981
-376 632 981
-375 629 980
-375 626 980
-375 623 981
-375 621 981
-376 620 985
-377 619 988
-378 619 993
-378 617 993
-377 614 993
-379 615 999
-379 612 999
-378 608 998
-379 607 1000
-379 604 1001
-379 602 1002
-380 602 1006
-382 603 1013
-381 600 1012
-383 600 1017
-383 597 1018
-383 595 1018
-382 592 1018
-383 591 1021
-383 588 1021
-384 587 1024
-383 584 1024
-384 582 1026
-383 579 1025
-383 577 1027
-383 574 1027
-383 572 1028
-384 570 1030
-384 569 1032
-385 568 1036
-385 566 1037
-386 564 1039
-385 561 1038
-385 559 1040
-385 556 1040
-386 555 1042
-386 552 1043
-386 551 1045
-387 549 1047
-387 547 1049
-387 545 1051
-388 544 1053
-389 543 1056
-389 540 1057
-390 539 1060
-390 537 1061
-390 535 1063
-390 532 1063
-389 529 1062
-390 528 1065
-390 525 1065
-378 652 971
-380 652 979
-380 649 980
-379 645 978
-378 641 976
-378 639 977
-379 638 980
-380 637 983
-379 633 982
-379 631 983
-379 628 983
-379 626 984
-379 623 985
-379 621 986
-379 620 989
-381 620 993
-381 618 994
-381 616 996
-383 617 1002
-381 612 999
-383 612 1003
-382 608 1002
-381 605 1001
-383 605 1006
