# .PCD v0.7 - Point Cloud Data file format
VERSION 0.7
FIELDS x y z
SIZE 4 4 4
TYPE F F F
COUNT 1 1 1
WIDTH 3571
HEIGHT 1
VIEWPOINT 0 0 0 1 0 0 0
POINTS 3571
DATA ascii
-461 756 1081
-464 780 1071
-464 776 1071
-464 774 1073
-463 770 1072
-464 770 1076
-464 766 1076
-465 766 1080
-465 762 1080
-468 778 1073
-468 777 1076
-467 773 1075
-468 771 1077
-468 768 1078
-468 767 1081
-394 657 1082
-394 655 1083
-398 667 1083
-398 664 1083
-398 663 1085
-398 659 1085
-398 658 1088
-398 655 1088
-401 673 1082
-401 671 1083
-401 668 1084
-401 667 1086
-401 664 1087
-401 661 1087
-402 660 1091
-403 658 1093
-402 655 1093
-405 681 1083
-405 678 1084
-405 676 1086
-406 674 1088
-405 671 1088
-406 669 1090
-406 667 1091
-405 664 1091
-406 663 1095
-406 659 1094
-406 658 1096
-406 654 1096
-406 653 1099
-409 690 1082
-408 685 1084
-408 682 1085
-409 681 1087
-409 678 1088
-409 675 1089
-409 673 1090
-409 670 1091
-409 669 1093
-410 667 1095
-410 664 1096
-410 662 1097
-410 660 1099
-410 657 1099
-410 655 1101
-412 697 1083
-412 694 1082
-413 693 1086
-412 689 1085
-412 687 1087
-412 685 1088
-413 683 1091
-413 681 1092
-413 678 1093
-413 676 1094
-413 673 1094
-413 671 1097
-413 668 1097
-414 667 1100
-414 664 1101
-414 662 1103
-414 660 1104
-415 659 1107
-415 656 1107
-415 653 1108
-416 699 1085
-416 697 1086
-417 695 1089
-416 692 1089
-417 690 1091
-417 688 1092
-416 684 1092
-416 682 1093
-416 679 1094
-416 677 1095
-415 673 1094
-417 672 1098
-416 669 1098
-417 668 1101
-417 666 1103
-418 665 1106
-418 662 1106
-419 661 1110
-419 658 1111
-419 656 1113
-418 653 1112
-419 705 1083
-419 703 1085
-420 701 1088
-420 700 1090
-421 698 1093
-420 694 1092
-420 692 1093
-420 689 1093
-420 687 1095
-420 684 1096
-421 682 1098
-421 680 1100
-420 677 1099
-420 675 1101
-420 671 1101
-420 670 1103
-420 666 1103
-421 666 1107
-421 663 1108
-422 662 1112
-423 660 1114
-423 658 1115
-422 654 1114
-422 711 1082
-422 709 1084
-423 707 1086
-423 705 1088
-423 703 1090
-423 701 1091
-424 699 1094
-425 697 1096
-424 694 1096
-423 690 1095
-424 688 1097
-424 686 1099
-424 683 1099
-424 681 1101
-424 679 1102
-424 677 1104
-423 672 1102
-424 672 1106
-423 667 1104
-424 666 1107
-424 664 1109
-425 662 1111
-425 660 1113
-426 659 1116
-426 657 1118
-426 654 1118
-425 712 1083
-426 710 1085
-426 708 1087
-426 706 1089
-427 705 1092
-427 703 1094
-427 700 1095
-428 699 1098
-428 696 1099
-428 694 1100
-428 692 1102
-428 689 1103
-429 688 1106
-430 686 1108
-429 683 1108
-429 680 1108
-428 676 1108
-428 673 1108
-427 669 1106
-428 668 1110
-428 666 1112
-428 664 1113
-429 662 1116
-429 660 1117
-430 658 1119
-429 654 1118
-430 653 1121
-429 719 1083
-429 716 1084
-430 715 1087
-430 712 1088
-430 710 1090
-430 709 1092
-430 705 1092
-431 705 1096
-431 702 1097
-431 700 1099
-431 698 1100
-432 696 1102
-432 694 1104
-432 691 1105
-433 690 1109
-434 688 1111
-434 686 1112
-435 685 1116
-434 681 1115
-433 677 1114
-432 673 1112
-432 670 1112
-431 666 1111
-432 665 1114
-432 663 1116
-432 660 1117
-432 658 1119
-432 656 1120
-433 654 1123
-432 725 1082
-432 722 1082
-432 721 1085
-432 718 1086
-433 717 1089
-433 714 1090
-434 712 1092
-434 710 1094
-434 708 1095
-434 706 1097
-434 703 1098
-435 702 1101
-435 700 1103
-435 697 1104
-436 697 1108
-437 695 1110
-438 693 1113
-438 691 1115
-438 689 1117
-438 687 1118
-438 683 1118
-437 680 1118
-436 676 1116
-437 674 1118
-438 673 1122
-436 668 1119
-436 665 1119
-437 664 1122
-435 729 1082
-436 728 1085
-436 724 1085
-436 723 1088
-436 721 1089
-437 719 1092
-437 717 1093
-438 715 1095
-438 713 1097
-438 710 1098
-438 708 1100
-438 705 1101
-439 703 1103
-439 702 1105
-439 699 1106
-440 698 1109
-440 696 1112
-441 694 1114
-442 693 1117
-442 691 1119
-442 688 1120
-442 685 1120
-442 682 1121
-441 679 1121
-441 677 1123
-442 675 1125
-441 671 1124
-441 669 1125
-440 665 1124
-441 664 1127
-438 656 1120
-439 655 1123
-439 653 1125
-439 731 1084
-439 729 1086
-439 726 1086
-440 724 1089
-440 722 1090
-440 720 1092
-440 717 1093
-441 716 1097
-441 713 1097
-441 711 1099
-441 709 1101
-442 707 1103
-441 704 1103
-442 703 1106
-443 701 1108
-443 698 1109
-443 697 1112
-444 696 1116
-445 694 1118
-445 692 1120
-445 689 1121
-445 686 1121
-444 683 1121
-445 681 1123
-445 679 1125
-447 679 1130
-446 675 1130
-446 672 1130
-445 668 1128
-444 664 1127
-443 660 1126
-443 658 1127
-442 654 1126
-444 654 1132
-442 734 1083
-443 733 1086
-443 731 1088
-443 728 1089
-444 727 1092
-444 725 1094
-444 723 1096
-444 719 1096
-445 718 1099
-444 715 1099
-445 713 1101
-445 711 1103
-445 708 1104
-445 706 1105
-446 704 1108
-446 702 1109
-446 699 1110
-447 698 1113
-447 696 1115
-448 694 1118
-448 692 1119
-448 690 1122
-448 687 1122
-448 684 1123
-448 681 1123
-448 680 1126
-449 678 1129
-450 677 1132
-451 676 1135
-449 671 1132
-448 666 1129
-446 661 1127
-447 660 1130
-449 660 1135
-450 659 1139
-451 658 1143
-451 655 1144
-445 737 1082
-446 736 1085
-446 733 1086
-445 730 1087
-446 728 1089
-447 727 1092
-447 725 1093
-447 723 1096
-447 721 1097
-448 719 1100
-448 717 1101
-448 715 1103
-448 712 1104
-449 711 1107
-449 708 1108
-449 706 1110
-450 704 1112
-450 701 1113
-450 699 1115
-451 697 1117
-451 695 1119
-451 693 1120
-451 691 1122
-451 688 1122
-451 685 1123
-451 682 1124
-452 682 1129
-452 679 1130
-453 678 1133
-453 675 1133
-452 672 1133
-452 669 1134
-452 666 1134
-455 667 1142
-455 665 1144
-457 665 1149
-454 658 1142
-456 658 1148
-455 655 1148
-448 737 1082
-448 735 1084
-448 734 1086
-449 732 1089
-449 730 1090
-450 729 1094
-450 726 1095
-451 725 1098
-451 723 1100
-452 721 1102
-452 718 1103
-452 716 1105
-452 713 1105
-452 712 1108
-452 709 1109
-453 707 1111
-453 705 1113
-453 702 1113
-453 699 1114
-453 698 1117
-454 696 1119
-454 693 1120
-454 691 1122
-454 688 1122
-454 685 1123
-453 682 1123
-455 683 1129
-455 680 1130
-459 683 1141
-456 675 1133
-456 673 1134
-456 671 1136
-458 671 1142
-459 670 1146
-458 666 1145
-459 664 1147
-459 662 1149
-459 660 1150
-459 656 1150
-459 654 1152
-460 653 1155
-451 745 1082
-452 743 1085
-451 739 1083
-451 737 1085
-451 734 1086
-452 732 1088
-452 730 1090
-453 729 1094
-454 728 1097
-455 727 1100
-455 724 1101
-455 721 1102
-455 719 1103
-455 717 1106
-455 715 1107
-456 713 1110
-456 711 1112
-457 709 1114
-457 707 1115
-456 704 1115
-456 701 1116
-457 699 1118
-457 697 1120
-457 694 1120
-457 692 1123
-457 689 1123
-457 686 1124
-457 684 1126
-460 685 1133
-461 684 1136
-462 683 1140
-461 680 1140
-462 678 1142
-461 674 1141
-463 674 1146
-465 674 1152
-465 672 1154
-465 670 1156
-463 664 1152
-463 661 1151
-462 657 1150
-463 656 1155
-464 654 1157
-465 653 1160
-455 749 1083
-455 746 1084
-456 745 1087
-455 741 1086
-455 739 1088
-455 736 1088
-455 733 1089
-455 731 1091
-456 731 1095
-456 728 1096
-458 728 1101
-458 725 1102
-458 723 1104
-459 721 1106
-459 720 1109
-459 717 1110
-460 716 1113
-460 713 1114
-460 711 1115
-460 708 1116
-460 706 1118
-460 703 1119
-461 701 1121
-461 699 1122
-460 695 1122
-461 694 1125
-461 691 1126
-461 688 1126
-462 687 1129
-463 686 1134
-465 686 1139
-466 686 1144
-465 681 1142
-467 682 1148
-467 679 1148
-469 679 1154
-468 676 1154
-469 674 1157
-469 663 1160
-469 661 1162
-458 752 1082
-459 750 1084
-460 750 1088
-460 747 1089
-459 744 1089
-460 742 1091
-459 738 1090
-459 735 1091
-459 732 1092
-459 731 1095
-460 730 1098
-461 728 1101
-461 726 1103
-461 724 1104
-462 722 1107
-463 722 1111
-463 719 1112
-464 718 1115
-464 715 1116
-464 712 1117
-463 709 1117
-464 707 1119
-464 705 1121
-465 703 1123
-465 701 1125
-465 698 1125
-465 696 1127
-465 693 1128
-465 690 1129
-466 689 1133
-468 690 1139
-461 754 1083
-462 752 1085
-462 750 1087
-463 749 1091
-463 746 1091
-463 744 1093
-462 739 1092
-463 738 1095
-463 735 1096
-464 734 1099
-464 732 1101
-465 731 1104
-465 728 1105
-465 725 1106
-466 724 1109
-467 723 1112
-466 720 1113
-467 718 1115
-467 715 1116
-467 713 1117
-466 709 1117
-467 707 1119
-467 705 1121
-468 704 1124
-468 702 1126
-468 699 1127
-469 698 1131
-466 762 1084
-465 758 1084
-465 755 1084
-465 753 1086
-465 751 1088
-466 749 1091
-467 747 1093
-467 745 1095
-467 743 1097
-467 740 1097
-467 738 1099
-468 736 1101
-468 734 1103
-468 732 1105
-468 729 1106
-469 727 1108
-469 725 1109
-469 723 1112
-468 764 1082
-468 761 1083
-469 760 1086
-469 757 1086
-469 755 1089
-343 788 998
-343 786 999
-343 783 1000
-346 790 999
-346 786 999
-346 784 1000
-348 789 998
-348 786 998
-348 784 1000
-348 781 1000
-351 790 998
-351 787 999
-351 785 1000
-350 781 1000
-354 791 999
-354 788 1000
-354 786 1001
-353 782 1001
-354 781 1003
-357 793 1001
-357 790 1001
-357 787 1002
-357 784 1003
-357 782 1004
-360 794 1002
-360 792 1003
-360 789 1004
-360 786 1005
-360 784 1006
-364 796 1004
-364 794 1005
-363 791 1006
-363 788 1007
-363 786 1008
-363 782 1008
-367 799 1007
-367 796 1008
-367 794 1009
-367 790 1009
-367 788 1010
-366 784 1009
-366 781 1010
-371 801 1009
-370 798 1009
-371 796 1011
-370 793 1012
-370 790 1012
-370 786 1012
-369 784 1013
-374 802 1010
-374 800 1011
-374 797 1012
-374 794 1013
-373 791 1013
-373 788 1013
-372 784 1013
-372 782 1014
-377 804 1012
-377 801 1012
-377 798 1013
-376 795 1013
-376 792 1014
-376 789 1014
-376 786 1015
-375 784 1016
-380 805 1012
-379 801 1012
-380 800 1014
-379 796 1014
-379 793 1014
-379 790 1015
-379 787 1016
-378 784 1016
-378 781 1016
-383 805 1012
-382 802 1012
-382 800 1014
-382 797 1015
-382 795 1016
-382 792 1017
-382 789 1018
-382 787 1019
-381 783 1019
-385 806 1012
-385 803 1013
-385 801 1014
-385 799 1016
-385 795 1016
-385 793 1018
-385 791 1019
-385 787 1019
-385 785 1020
-388 807 1013
-389 805 1015
-388 802 1015
-388 800 1017
-388 796 1017
-388 795 1019
-388 792 1020
-388 790 1022
-388 787 1022
-388 783 1022
-392 809 1015
-392 807 1017
-392 804 1017
-392 802 1019
-391 798 1018
-391 796 1020
-391 792 1020
-391 791 1022
-391 788 1023
-391 784 1023
-396 812 1018
-396 810 1020
-396 807 1020
-396 805 1022
-395 800 1020
-395 798 1022
-394 794 1022
-394 792 1023
-394 788 1023
-394 786 1024
-393 781 1023
-399 813 1018
-398 810 1019
-398 807 1020
-398 805 1021
-398 801 1021
-397 798 1021
-397 795 1022
-397 792 1023
-397 790 1024
-396 786 1024
-396 783 1024
-402 816 1021
-402 813 1022
-403 811 1024
-402 807 1023
-402 804 1024
-401 800 1024
-401 797 1024
-401 794 1025
-400 791 1025
-400 787 1025
-399 785 1026
-399 782 1027
-400 781 1030
-406 817 1022
-405 814 1023
-405 811 1024
-405 809 1025
-405 806 1026
-404 802 1025
-404 799 1026
-404 796 1026
-403 791 1025
-403 789 1026
-403 787 1028
-402 783 1028
-403 781 1030
-410 821 1026
-409 816 1025
-409 814 1027
-409 812 1028
-409 809 1029
-409 805 1029
-408 803 1030
-408 799 1030
-407 796 1030
-407 792 1030
-407 790 1031
-406 786 1031
-407 784 1033
-406 781 1033
-412 820 1025
-412 818 1026
-412 815 1027
-412 812 1028
-412 810 1030
-412 807 1030
-412 805 1032
-412 801 1032
-411 798 1033
-411 794 1032
-410 792 1033
-410 789 1034
-410 786 1035
-410 783 1035
-416 823 1028
-416 820 1028
-416 818 1031
-416 814 1030
-416 812 1032
-416 809 1033
-416 808 1035
-415 803 1034
-415 800 1034
-414 796 1034
-414 794 1035
-414 790 1035
-413 787 1036
-413 785 1037
-413 782 1038
-419 823 1027
-418 819 1026
-418 817 1028
-419 815 1031
-419 813 1032
-419 810 1033
-420 810 1037
-419 805 1036
-418 802 1036
-418 798 1036
-417 794 1035
-416 791 1035
-417 789 1037
-416 786 1038
-416 783 1038
-422 824 1028
-421 820 1027
-422 819 1030
-422 816 1031
-422 814 1033
-422 811 1034
-423 811 1038
-422 807 1037
-421 803 1037
-421 800 1037
-420 796 1037
-420 793 1037
-420 791 1039
-420 788 1040
-420 785 1040
-419 782 1041
-425 825 1028
-424 821 1028
-425 820 1031
-424 817 1031
-425 815 1033
-425 813 1035
-425 811 1037
-425 807 1037
-424 804 1037
-424 800 1037
-423 797 1037
-423 794 1038
-423 791 1039
-423 789 1041
-423 786 1041
-422 782 1041
-429 829 1032
-428 824 1031
-429 822 1033
-428 819 1033
-428 817 1035
-428 814 1036
-428 812 1038
-428 808 1038
-427 804 1037
-427 801 1038
-426 798 1038
-426 795 1039
-426 793 1040
-426 791 1042
-426 787 1042
-426 784 1043
-426 782 1044
-432 830 1033
-431 826 1032
-432 824 1034
-432 821 1035
-431 818 1036
-431 814 1036
-432 813 1039
-431 810 1039
-431 806 1039
-430 803 1039
-430 800 1040
-429 796 1040
-429 794 1041
-429 791 1042
-428 787 1041
-429 785 1043
-429 783 1045
-437 833 1036
-436 828 1035
-435 826 1036
-435 822 1036
-435 819 1037
-435 817 1038
-434 814 1039
-434 810 1039
-434 808 1040
-433 804 1040
-433 801 1041
-433 799 1042
-433 796 1043
-433 793 1044
-433 791 1046
-433 788 1046
-433 786 1049
-433 783 1049
-433 781 1051
-439 833 1036
-439 831 1037
-439 828 1038
-438 823 1037
-438 821 1039
-438 818 1039
-438 815 1040
-438 812 1041
-437 809 1041
-437 806 1042
-437 803 1043
-437 801 1044
-436 797 1044
-436 794 1045
-436 792 1047
-436 788 1046
-436 787 1049
-436 784 1050
-436 782 1052
-443 836 1039
-442 831 1037
-442 828 1038
-442 826 1039
-441 822 1039
-441 819 1040
-441 816 1041
-441 814 1043
-440 810 1042
-440 807 1042
-440 804 1043
-439 800 1043
-440 799 1046
-440 797 1048
-440 794 1048
-440 791 1049
-440 790 1052
-440 786 1052
-440 784 1054
-440 781 1054
-446 836 1038
-445 833 1038
-446 831 1040
-446 828 1041
-445 824 1041
-445 822 1043
-445 819 1043
-445 817 1045
-444 811 1043
-444 809 1045
-443 806 1045
-444 804 1047
-443 800 1047
-443 798 1048
-443 794 1048
-443 792 1050
-444 791 1053
-443 788 1054
-443 786 1055
-443 783 1056
-444 782 1059
-449 837 1038
-450 836 1042
-449 831 1040
-449 829 1042
-449 826 1043
-449 823 1044
-448 820 1044
-448 817 1045
-446 812 1043
-446 809 1044
-446 806 1045
-447 805 1047
-446 801 1047
-446 799 1049
-447 797 1051
-447 795 1053
-448 794 1056
-448 791 1057
-448 788 1058
-448 786 1060
-447 783 1060
-452 837 1038
-453 837 1042
-452 833 1042
-453 832 1045
-452 828 1045
-452 826 1046
-451 820 1044
-451 818 1046
-450 814 1045
-450 812 1047
-450 808 1046
-450 806 1048
-449 802 1048
-449 800 1049
-449 797 1050
-449 795 1052
-451 794 1056
-451 792 1058
-451 790 1060
-451 787 1060
-450 783 1059
-455 840 1040
-455 836 1040
-455 834 1042
-455 832 1044
-454 827 1042
-455 826 1046
-455 823 1046
-454 820 1047
-453 815 1045
-453 813 1047
-453 809 1047
-453 806 1048
-453 804 1049
-452 801 1050
-453 800 1053
-454 798 1055
-454 796 1058
-454 794 1059
-455 792 1061
-454 788 1061
-453 785 1061
-453 781 1061
-458 840 1040
-459 839 1043
-459 836 1044
-459 833 1045
-458 830 1045
-459 828 1048
-458 824 1047
-459 823 1050
-459 820 1051
-458 816 1050
-457 813 1051
-457 810 1052
-457 807 1053
-457 804 1054
-457 802 1056
-457 800 1057
-458 798 1060
-458 796 1061
-458 794 1063
-457 789 1062
-457 787 1063
-456 782 1061
-463 845 1045
-463 842 1046
-461 836 1043
-461 833 1044
-461 829 1044
-463 831 1050
-462 826 1049
-462 824 1051
-461 820 1051
-461 818 1052
-461 814 1052
-461 811 1053
-461 810 1056
-461 807 1057
-462 806 1060
-462 803 1061
-461 800 1061
-461 797 1062
-462 795 1064
-461 791 1063
-461 788 1064
-460 784 1064
-461 783 1067
-465 844 1043
-467 843 1047
-466 839 1046
-466 837 1048
-466 834 1049
-465 830 1049
-466 830 1053
-467 828 1055
-467 825 1056
-467 823 1058
-466 819 1058
-465 815 1057
-466 814 1060
-465 810 1060
-466 808 1062
-465 805 1062
-465 802 1063
-465 798 1063
-465 796 1065
-464 792 1064
-464 789 1065
-464 786 1066
-464 784 1068
-464 781 1068
-469 835 1050
-469 820 1058
-469 815 1061
-469 807 1065
-469 804 1065
-468 800 1065
-468 797 1065
-467 793 1065
-467 791 1066
-467 788 1067
-468 786 1070
-468 784 1071
-468 782 1073
-214 742 959
-216 742 959
-216 739 959
-216 736 960
-215 733 960
-215 730 960
-215 728 961
-215 726 962
-215 723 963
-215 721 964
-215 718 965
-215 716 966
-215 713 966
-214 709 965
-214 705 964
-214 702 964
-218 742 959
-218 740 960
-218 738 961
-218 734 961
-218 730 960
-218 728 961
-218 726 962
-217 723 962
-217 721 964
-217 719 965
-217 716 966
-217 713 965
-217 710 965
-216 706 964
-216 703 964
-216 700 964
-216 697 964
-215 694 965
-215 692 966
-215 689 966
-215 687 967
-215 685 968
-215 682 969
-215 680 970
-215 678 971
-215 675 972
-215 673 973
-215 670 973
-215 668 974
-215 666 976
-215 664 976
-215 661 976
-215 658 977
-215 656 977
-214 653 977
-221 745 962
-221 742 962
-221 739 962
-220 735 961
-220 731 961
-220 729 962
-220 726 962
-220 724 963
-220 721 964
-220 719 965
-220 716 965
-219 713 965
-219 710 965
-219 707 965
-219 704 965
-218 701 965
-218 698 966
-218 695 966
-218 693 967
-218 691 968
-218 688 969
-218 685 968
-218 683 970
-218 681 971
-218 679 972
-218 676 973
-218 674 974
-217 671 974
-217 669 975
-217 667 976
-217 664 976
-217 662 977
-217 659 978
-217 656 978
-217 653 978
-224 744 961
-224 742 962
-223 739 962
-223 735 961
-222 732 961
-222 729 962
-222 726 962
-222 723 962
-222 721 963
-222 718 964
-222 716 965
-221 712 964
-221 710 965
-221 707 965
-221 704 965
-221 701 965
-221 699 967
-221 696 967
-221 694 968
-221 692 969
-220 689 969
-220 686 969
-220 684 971
-220 682 972
-220 680 973
-220 677 973
-220 674 974
-220 671 974
-220 668 974
-220 666 975
-220 664 976
-220 662 977
-220 660 978
-219 657 978
-219 654 978
-226 744 960
-226 741 961
-225 738 961
-225 735 961
-225 731 960
-225 729 961
-225 727 962
-224 723 962
-224 721 963
-224 719 964
-224 716 964
-223 712 963
-223 710 964
-223 707 965
-223 704 965
-223 702 966
-223 700 967
-223 697 968
-223 695 969
-223 693 970
-223 690 971
-223 687 971
-223 685 972
-223 683 973
-223 681 974
-223 678 974
-223 675 975
-222 672 975
-222 669 975
-222 667 976
-222 664 976
-222 662 977
-222 660 979
-222 658 979
-221 654 978
-228 743 959
-228 742 961
-228 739 961
-227 735 961
-227 732 961
-227 730 962
-227 727 962
-227 724 962
-227 721 963
-226 718 963
-226 716 964
-226 713 964
-226 710 964
-226 707 965
-226 704 965
-226 702 966
-225 700 967
-225 697 968
-225 695 969
-225 693 970
-225 691 971
-225 688 971
-225 686 973
-225 683 973
-225 681 974
-225 678 974
-225 676 975
-225 673 975
-224 670 975
-224 667 976
-224 664 976
-224 662 977
-224 660 978
-224 658 979
-224 654 978
-230 744 959
-230 742 961
-230 740 962
-230 736 962
-230 733 962
-230 731 963
-229 728 963
-229 725 963
-229 722 964
-229 720 965
-229 717 965
-228 713 964
-228 711 965
-228 708 966
-228 705 965
-228 703 967
-228 700 967
-228 698 968
-228 695 969
-228 693 970
-228 691 971
-228 688 971
-228 686 973
-228 683 973
-228 681 974
-227 678 974
-227 676 975
-227 673 975
-227 670 975
-227 667 975
-227 665 976
-227 662 977
-226 660 977
-227 658 979
-227 656 980
-226 653 980
-233 744 959
-233 742 961
-233 740 962
-233 737 963
-232 734 963
-232 732 964
-232 729 964
-232 726 964
-232 724 966
-232 721 966
-231 718 966
-231 715 966
-231 712 966
-231 709 967
-230 706 966
-230 703 967
-230 701 968
-230 698 968
-230 696 969
-230 694 971
-230 691 971
-230 689 972
-230 687 974
-230 684 974
-230 681 974
-230 678 974
-230 676 975
-229 673 975
-229 670 975
-229 668 976
-229 665 976
-229 663 977
-229 660 978
-229 658 979
-229 655 979
-229 653 980
-235 745 960
-235 743 962
-235 741 963
-235 737 962
-235 735 964
-235 733 965
-235 730 965
-235 728 966
-235 725 967
-234 722 967
-234 719 967
-234 716 967
-234 713 967
-234 710 968
-233 707 967
-233 704 968
-233 702 969
-233 699 969
-232 696 969
-233 694 971
-233 692 972
-232 689 972
-233 687 974
-232 684 974
-232 682 974
-232 679 975
-232 677 976
-232 674 976
-232 672 977
-232 669 977
-231 666 977
-231 664 978
-231 661 978
-231 658 979
-231 656 980
-231 654 981
-238 747 962
-238 745 964
-238 743 965
-238 740 965
-238 737 966
-238 734 966
-238 732 967
-237 729 967
-237 726 968
-237 723 968
-237 720 968
-236 717 968
-236 715 969
-236 711 969
-236 708 968
-236 705 969
-236 703 970
-235 699 969
-235 696 969
-235 695 971
-235 692 971
-235 689 972
-235 688 974
-235 685 975
-235 682 975
-235 680 976
-235 677 976
-234 675 977
-234 672 977
-234 670 978
-234 666 977
-234 664 978
-234 662 979
-234 659 979
-234 657 981
-234 655 982
-234 653 984
-241 748 963
-240 745 963
-241 743 965
-240 740 965
-240 737 966
-240 734 966
-240 732 967
-240 729 967
-239 726 967
-239 723 967
-239 720 968
-239 717 968
-239 715 969
-239 712 969
-238 709 969
-238 706 969
-238 703 970
-237 699 969
-237 697 970
-237 695 971
-237 693 972
-237 690 973
-237 688 974
-238 686 976
-237 683 976
-237 681 977
-237 678 977
-237 676 978
-237 672 977
-237 670 978
-236 666 977
-236 664 978
-236 661 978
-236 659 979
-236 657 981
-236 656 983
-236 654 984
-243 747 962
-243 745 963
-243 743 965
-243 740 965
-243 739 967
-243 735 967
-242 731 966
-242 729 967
-242 727 968
-241 723 967
-241 720 968
-241 718 969
-241 716 970
-241 713 970
-241 710 970
-241 707 971
-241 705 972
-240 701 971
-240 698 971
-240 696 972
-240 694 973
-240 691 974
-240 689 975
-240 687 977
-240 684 977
-240 682 978
-239 678 977
-239 676 978
-239 673 978
-239 671 979
-239 668 979
-239 666 980
-239 663 980
-239 660 981
-239 658 982
-239 656 983
-239 654 984
-246 749 964
-246 747 965
-246 744 966
-246 742 967
-246 740 968
-245 736 968
-245 733 967
-244 729 967
-244 725 966
-244 723 967
-244 720 967
-244 718 968
-244 715 969
-243 712 969
-243 710 970
-243 708 971
-243 705 971
-243 701 971
-243 699 972
-243 697 973
-242 694 973
-243 692 975
-243 690 976
-243 688 978
-243 685 978
-243 683 979
-242 680 979
-242 677 979
-242 673 978
-242 671 979
-241 668 979
-241 666 980
-241 663 980
-241 661 982
-241 659 983
-241 657 984
-241 655 985
-248 750 965
-248 748 966
-248 745 967
-248 743 968
-248 739 967
-247 735 966
-247 732 966
-247 729 966
-246 726 966
-246 723 966
-246 720 967
-246 718 968
-246 716 970
-246 713 970
-246 711 971
-246 709 972
-246 706 972
-245 702 971
-245 700 973
-245 697 973
-245 694 973
-245 692 974
-245 690 976
-245 688 977
-245 686 979
-245 683 979
-245 680 979
-244 677 979
-244 674 978
-244 671 979
-244 669 980
-244 667 981
-244 665 982
-244 662 983
-244 660 984
-244 658 985
-244 655 985
-244 653 987
-251 751 965
-251 749 967
-251 746 967
-251 743 968
-250 739 967
-250 737 968
-249 732 966
-249 730 967
-249 726 966
-249 724 967
-248 721 967
-248 718 968
-248 716 969
-248 713 969
-248 710 970
-248 709 972
-248 706 972
-248 703 972
-248 700 973
-247 697 973
-247 695 974
-247 693 975
-247 690 976
-248 689 978
-248 687 979
-247 683 978
-247 680 978
-247 678 979
-246 674 978
-246 672 979
-246 670 981
-246 668 982
-246 665 982
-246 663 984
-246 660 984
-246 658 985
-246 655 985
-246 654 987
-254 752 967
-254 750 968
-254 748 969
-253 744 968
-252 740 967
-252 737 968
-252 733 967
-252 730 967
-252 728 968
-251 725 968
-251 722 968
-251 719 969
-251 717 970
-251 714 970
-251 711 971
-251 709 972
-250 706 972
-250 704 973
-250 701 974
-250 698 974
-250 695 974
-250 694 976
-250 691 976
-250 688 977
-250 686 978
-249 683 978
-249 681 979
-249 678 979
-249 675 979
-249 673 981
-249 672 983
-249 669 983
-249 666 983
-249 664 985
-249 661 985
-249 658 985
-249 656 986
-249 654 987
-257 755 970
-257 753 971
-257 749 971
-256 745 970
-255 742 969
-255 739 970
-255 735 969
-254 731 968
-254 729 969
-254 726 969
-254 723 969
-254 720 970
-254 718 971
-253 715 971
-253 712 971
-253 709 972
-253 707 973
-253 704 973
-253 702 974
-253 699 975
-252 696 975
-252 694 976
-252 692 977
-252 689 978
-252 687 979
-252 684 979
-252 681 979
-251 678 979
-251 676 980
-251 673 980
-251 671 982
-251 669 983
-251 667 984
-251 664 984
-251 662 986
-251 659 985
-251 656 986
-251 654 987
-260 756 971
-259 753 971
-259 751 972
-258 746 970
-258 743 970
-258 739 970
-257 735 969
-257 732 968
-257 730 970
-257 727 970
-256 724 970
-256 722 972
-256 720 973
-256 716 972
-256 714 973
-256 710 973
-256 708 974
-255 705 974
-256 703 976
-255 700 976
-255 697 976
-255 695 977
-255 692 977
-254 689 977
-255 687 979
-254 684 979
-254 681 979
-254 679 980
-254 677 981
-254 674 981
-254 672 983
-254 670 984
-254 667 984
-254 664 984
-254 662 986
-253 659 985
-254 657 987
-254 655 988
-254 653 989
-263 758 973
-262 754 972
-262 752 973
-261 748 972
-261 744 972
-260 740 971
-260 737 971
-260 734 971
-260 731 971
-259 727 970
-259 725 971
-259 722 972
-259 720 973
-259 717 973
-258 714 973
-258 711 973
-258 708 974
-258 705 974
-258 704 976
-258 701 977
-258 699 978
-258 696 978
-257 693 978
-257 691 979
-257 688 979
-257 685 980
-256 682 979
-257 680 981
-256 677 981
-256 674 981
-256 672 983
-256 670 984
-256 668 985
-256 665 985
-256 663 986
-256 660 986
-256 658 987
-256 655 988
-256 653 989
-265 759 974
-265 755 973
-264 752 973
-264 748 972
-263 745 972
-263 742 972
-263 738 972
-262 734 971
-262 731 971
-262 728 971
-262 726 972
-261 723 972
-261 720 973
-261 717 973
-261 714 973
-260 711 973
-260 709 974
-260 706 975
-261 705 977
-261 702 978
-261 700 979
-260 697 979
-260 695 980
-260 692 980
-260 689 981
-260 686 981
-259 683 980
-259 681 982
-259 678 982
-259 676 983
-259 674 985
-259 672 986
-259 669 986
-259 666 986
-259 664 987
-258 660 986
-258 658 987
-258 656 988
-258 653 989
-267 759 973
-267 755 972
-267 752 973
-266 748 972
-266 746 973
-266 742 972
-265 739 973
-265 736 972
-265 732 972
-264 729 972
-264 727 973
-264 724 973
-264 721 973
-264 718 974
-263 715 974
-263 712 974
-263 710 975
-263 707 976
-263 706 978
-263 703 979
-263 701 980
-263 699 981
-263 696 981
-263 693 982
-263 690 982
-262 687 982
-262 684 982
-262 682 983
-262 679 983
-261 676 983
-262 674 985
-262 672 986
-262 670 987
-261 667 987
-261 665 988
-261 661 987
-261 659 988
-261 656 989
-261 655 991
-270 758 972
-269 755 972
-269 752 972
-269 749 972
-269 746 973
-268 742 972
-268 740 973
-268 737 973
-267 733 972
-267 730 972
-267 727 973
-266 724 973
-266 722 974
-266 719 974
-266 715 974
-266 713 975
-266 711 976
-266 708 977
-266 706 978
-266 704 979
-266 701 980
-266 699 981
-265 696 981
-265 694 982
-265 691 982
-265 688 982
-265 685 983
-265 683 984
-265 681 985
-264 678 985
-264 675 986
-264 673 987
-264 671 988
-264 668 988
-264 666 989
-264 663 989
-264 660 989
-264 657 990
-264 655 991
-264 653 992
-272 759 972
-271 755 971
-271 752 972
-271 749 972
-271 746 973
-271 743 973
-270 740 973
-270 737 973
-270 734 973
-269 731 973
-269 728 974
-269 725 974
-269 722 974
-268 719 974
-268 716 975
-268 713 975
-268 712 977
-268 709 978
-268 706 978
-268 704 979
-268 702 980
-268 699 980
-268 696 981
-268 695 983
-268 692 983
-267 689 983
-267 686 983
-267 683 984
-267 681 985
-267 678 985
-267 676 986
-267 674 988
-267 671 988
-266 668 988
-266 666 989
-266 663 989
-266 661 990
-266 658 991
-266 656 992
-266 654 993
-274 759 972
-274 756 972
-274 753 973
-274 750 973
-274 748 974
-273 744 973
-273 740 973
-273 738 974
-272 735 974
-272 732 974
-272 729 974
-272 726 975
-271 722 974
-271 719 974
-271 717 975
-271 715 977
-271 713 978
-271 710 979
-271 707 979
-271 705 980
-270 702 980
-270 700 981
-270 697 981
-270 695 983
-270 692 983
-270 690 984
-270 687 984
-270 684 985
-270 682 986
-269 679 986
-269 677 987
-270 675 989
-270 673 990
-269 670 990
-269 667 990
-269 664 991
-269 662 992
-269 659 992
-269 657 993
-269 655 994
-277 759 972
-277 756 972
-277 754 973
-276 750 973
-276 748 974
-276 744 973
-275 741 974
-275 738 974
-275 736 975
-275 733 975
-274 730 975
-274 726 975
-274 724 976
-274 721 976
-274 719 978
-274 717 979
-274 715 980
-274 711 980
-273 708 980
-273 706 981
-273 703 981
-273 700 981
-272 697 981
-273 695 983
-272 692 983
-273 691 985
-272 688 985
-272 685 986
-272 682 986
-272 680 987
-272 678 988
-272 675 989
-272 673 990
-272 671 991
-272 668 991
-272 666 993
-272 664 994
-272 661 994
-272 659 995
-272 656 996
-272 653 996
-280 760 973
-279 757 973
-280 755 975
-279 751 974
-279 748 974
-278 745 974
-278 742 974
-278 739 974
-278 736 975
-277 733 975
-277 730 975
-277 728 977
-277 725 977
-277 723 978
-277 720 979
-277 719 981
-277 716 982
-277 713 982
-276 710 982
-276 707 982
-276 704 982
-275 701 982
-275 698 982
-275 695 983
-275 693 984
-275 691 985
-275 688 986
-275 686 987
-275 684 988
-275 681 988
-275 679 989
-275 676 990
-275 674 991
-275 672 992
-274 669 992
-274 666 993
-274 664 994
-274 661 994
-274 659 995
-274 657 997
-274 654 997
-274 653 999
-282 760 972
-282 757 973
-282 755 974
-281 752 974
-281 749 974
-281 746 975
-280 742 974
-280 740 975
-281 738 977
-280 735 977
-280 732 977
-280 730 979
-280 727 979
-280 724 979
-279 721 980
-280 720 982
-280 717 983
-279 714 983
-279 711 983
-279 709 984
-278 705 983
-278 702 983
-278 700 984
-278 697 985
-278 694 985
-278 692 986
-278 689 986
-277 686 987
-277 683 987
-277 682 989
-277 680 990
-277 677 991
-277 675 992
-277 673 993
-277 670 993
-277 667 994
-277 665 995
-277 663 996
-277 660 997
-277 658 998
-277 655 998
-277 654 1000
-285 761 973
-284 759 974
-284 756 975
-284 753 975
-284 750 975
-284 747 976
-283 743 975
-283 741 976
-283 738 977
-283 735 977
-283 733 978
-283 731 980
-283 729 981
-283 726 981
-282 723 982
-283 722 984
-282 718 984
-282 715 984
-282 713 985
-282 711 986
-281 707 985
-281 704 985
-281 701 986
-281 699 987
-281 696 987
-281 694 988
-280 690 987
-280 687 988
-280 684 988
-280 682 989
-280 680 991
-280 678 992
-280 677 994
-280 674 995
-280 671 995
-280 669 996
-280 666 996
-280 664 997
-280 661 998
-280 659 999
-280 656 999
-280 654 1000
-287 761 973
-287 759 974
-287 756 975
-287 753 975
-287 751 976
-286 748 976
-286 745 977
-286 742 977
-286 739 978
-286 737 979
-285 734 979
-286 732 981
-286 730 982
-285 727 982
-285 724 983
-285 722 984
-285 719 984
-285 716 985
-285 715 987
-285 712 987
-284 708 986
-284 705 987
-284 703 988
-284 700 988
-284 697 988
-283 694 988
-283 691 988
-283 688 988
-282 685 988
-283 683 990
-283 681 992
-283 679 993
-283 677 994
-283 675 995
-283 672 995
-282 669 995
-282 666 996
-283 665 998
-283 662 999
-283 660 1000
-282 657 1000
-282 655 1001
-290 763 974
-290 760 975
-290 758 976
-289 754 976
-289 752 977
-289 749 977
-289 745 977
-288 742 977
-288 741 979
-288 737 979
-288 735 980
-288 733 982
-288 731 983
-288 727 982
-288 725 983
-288 722 984
-288 720 985
-287 717 985
-288 716 988
-288 713 988
-287 709 988
-287 706 988
-287 704 989
-287 701 989
-286 698 989
-286 695 989
-286 692 989
-285 689 989
-285 686 989
-286 685 992
-286 683 994
-286 680 994
-286 678 995
-286 675 996
-285 672 996
-285 670 996
-285 668 998
-285 666 999
-285 663 1000
-285 661 1001
-285 658 1001
-285 655 1001
-293 764 975
-292 761 976
-293 759 978
-292 755 977
-292 754 979
-292 750 978
-291 747 978
-291 743 978
-291 742 980
-291 738 980
-291 737 982
-291 734 983
-291 731 983
-290 727 982
-290 725 983
-290 722 983
-290 720 985
-290 718 986
-290 716 988
-290 714 989
-290 711 989
-290 707 989
-290 706 991
-289 702 990
-289 700 991
-289 697 991
-289 693 991
-288 690 990
-288 687 991
-288 685 992
-288 683 994
-288 681 995
-288 679 996
-288 676 997
-288 673 997
-288 671 998
-288 669 1000
-288 667 1001
-289 666 1003
-288 662 1002
-288 659 1002
-287 656 1002
-287 654 1003
-296 766 977
-296 764 979
-296 761 980
-295 757 979
-295 755 980
-294 751 979
-294 748 979
-294 744 979
-294 743 981
-294 740 981
-294 737 982
-294 735 983
-293 732 983
-293 728 982
-293 725 983
-293 723 984
-293 720 985
-292 718 986
-293 717 989
-293 715 990
-293 712 990
-293 709 991
-293 708 993
-292 704 992
-292 701 993
-292 698 993
-292 695 993
-291 692 993
-291 689 993
-291 686 993
-291 684 995
-291 681 995
-291 679 996
-291 677 997
-291 674 998
-291 672 999
-290 669 999
-291 667 1001
-291 666 1003
-291 663 1003
-290 659 1002
-290 657 1003
-290 655 1004
-299 768 979
-299 765 980
-299 763 981
-298 758 980
-298 756 981
-297 751 979
-297 748 979
-297 746 980
-297 744 982
-296 741 982
-296 738 983
-296 735 983
-296 732 983
-295 728 982
-295 726 983
-295 723 984
-295 721 986
-295 719 987
-296 717 989
-295 715 990
-295 713 991
-295 710 992
-295 708 993
-295 705 993
-295 702 994
-295 700 995
-295 697 995
-294 694 995
-294 691 995
-294 688 995
-294 685 996
-293 682 996
-293 680 997
-293 678 998
-293 675 999
-293 673 1000
-293 670 1000
-293 668 1002
-293 666 1003
-293 663 1003
-293 661 1004
-293 659 1005
-293 656 1005
-293 653 1005
-301 768 979
-301 766 981
-301 763 981
-301 760 981
-301 757 982
-300 753 981
-299 749 980
-300 747 982
-300 745 983
-300 743 984
-299 740 985
-299 737 985
-299 734 985
-298 730 984
-298 727 985
-298 724 985
-298 723 987
-298 720 988
-298 718 990
-299 717 992
-298 714 992
-298 711 993
-298 708 993
-298 706 994
-298 703 994
-298 701 996
-297 698 996
-297 696 997
-297 693 998
-297 690 998
-297 687 998
-297 684 998
-296 682 999
-296 679 999
-296 676 1000
-296 675 1002
-296 672 1002
-296 669 1003
-296 667 1004
-296 664 1004
-296 661 1004
-296 659 1005
-295 655 1004
-295 654 1006
-304 770 981
-304 767 982
-304 764 982
-304 761 982
-304 758 983
-303 755 983
-303 752 983
-303 749 984
-303 747 985
-302 744 985
-302 741 986
-302 738 986
-302 735 986
-301 732 986
-301 728 986
-301 725 986
-301 723 987
-301 721 989
-301 719 990
-301 716 991
-301 714 992
-301 712 993
-300 708 993
-300 706 994
-301 704 996
-301 702 997
-300 699 997
-300 697 998
-300 694 999
-300 691 999
-300 689 1000
-300 686 1000
-300 683 1001
-299 680 1001
-299 678 1002
-299 675 1002
-299 672 1002
-299 670 1004
-299 668 1005
-299 665 1005
-298 662 1005
-299 660 1007
-298 657 1007
-298 655 1007
-307 772 983
-307 769 984
-307 766 984
-307 763 984
-306 759 984
-306 756 984
-306 753 984
-306 750 985
-305 748 986
-305 745 987
-305 742 987
-305 739 987
-304 736 987
-304 733 987
-304 730 987
-304 727 988
-304 725 990
-303 722 989
-303 719 990
-303 717 991
-303 714 992
-303 712 993
-303 710 994
-303 707 995
-303 705 996
-303 702 997
-303 699 997
-303 698 999
-303 695 999
-303 692 1000
-302 689 1000
-302 687 1001
-302 684 1002
-302 681 1002
-302 679 1003
-302 676 1003
-301 673 1003
-302 671 1005
-301 668 1005
-301 666 1006
-301 664 1007
-301 661 1008
-301 658 1007
-301 656 1009
-301 653 1009
-310 773 984
-310 770 985
-310 766 984
-310 764 985
-309 761 985
-309 757 985
-308 754 985
-308 752 986
-308 749 987
-308 746 987
-308 743 987
-308 740 988
-307 738 989
-307 735 989
-307 731 989
-307 729 990
-306 726 990
-306 723 990
-306 720 991
-306 718 992
-306 715 992
-306 712 993
-306 710 994
-306 707 995
-306 705 996
-306 703 997
-305 700 997
-305 697 998
-305 696 1000
-305 693 1001
-305 690 1001
-305 688 1003
-305 685 1003
-305 682 1003
-305 680 1004
-305 678 1005
-304 675 1005
-304 672 1006
-304 670 1007
-304 668 1008
-304 665 1008
-304 662 1009
-304 659 1009
-304 658 1011
-304 655 1012
-304 653 1013
-313 773 984
-313 771 985
-312 768 985
-312 764 985
-312 762 986
-311 758 985
-311 755 986
-311 753 987
-311 750 988
-311 747 988
-311 745 989
-311 742 990
-310 739 990
-310 736 990
-310 733 991
-309 729 990
-309 726 990
-309 724 991
-309 721 992
-308 718 992
-308 716 993
-309 714 995
-308 711 995
-308 709 996
-308 705 996
-308 703 997
-308 700 997
-308 698 999
-308 696 1000
-308 694 1001
-308 691 1002
-308 689 1003
-308 687 1005
-308 684 1005
-308 681 1005
-308 679 1006
-308 676 1007
-307 673 1007
-307 671 1008
-307 668 1008
-307 666 1009
-307 663 1010
-306 660 1009
-307 658 1011
-307 656 1012
-307 654 1014
-316 775 986
-316 772 986
-316 769 987
-315 766 987
-314 762 986
-314 759 986
-314 756 987
-314 753 987
-314 751 988
-313 747 988
-313 745 989
-313 741 988
-313 739 990
-312 735 989
-312 734 991
-312 730 990
-312 727 991
-311 724 991
-311 722 992
-311 719 993
-311 717 994
-312 715 996
-311 713 997
-311 710 997
-311 707 998
-311 705 999
-311 702 999
-310 699 999
-311 697 1001
-311 695 1002
-311 692 1003
-311 690 1004
-311 687 1005
-311 685 1006
-311 683 1007
-310 680 1007
-310 677 1008
-310 675 1009
-310 672 1009
-310 670 1010
-310 667 1010
-309 664 1010
-309 661 1010
-309 659 1012
-309 657 1013
-309 654 1014
-320 778 989
-319 775 989
-319 772 990
-318 768 989
-318 765 989
-317 761 988
-317 757 988
-316 753 987
-317 752 990
-316 749 990
-316 746 990
-316 743 990
-316 741 992
-315 737 991
-316 735 993
-315 731 992
-315 729 993
-314 726 993
-314 723 994
-314 721 995
-314 719 996
-314 716 997
-314 714 998
-314 711 998
-314 708 998
-314 706 1000
-314 703 1000
-314 700 1001
-314 699 1003
-314 696 1004
-313 693 1004
-313 691 1005
-313 688 1006
-313 686 1007
-314 684 1009
-314 682 1010
-314 680 1011
-313 677 1011
-313 673 1010
-313 671 1011
-312 668 1011
-312 665 1011
-312 662 1012
-312 661 1014
-312 658 1015
-312 655 1015
-312 653 1016
-322 778 989
-322 776 990
-322 773 991
-321 769 990
-321 766 990
-320 762 989
-320 759 990
-319 755 989
-320 754 991
-319 750 991
-319 748 992
-319 744 991
-319 742 993
-318 738 992
-318 736 993
-318 733 993
-317 729 993
-317 726 993
-317 725 995
-317 721 995
-317 720 997
-317 717 998
-317 714 998
-316 711 998
-316 709 999
-316 706 1000
-316 704 1001
-316 701 1002
-317 700 1004
-317 698 1006
-317 696 1007
-317 693 1007
-317 690 1008
-316 687 1008
-316 685 1009
-317 683 1011
-316 680 1011
-316 678 1012
-316 674 1011
-315 671 1011
-315 668 1011
-315 666 1012
-315 664 1014
-315 662 1015
-315 659 1016
-315 657 1017
-315 655 1018
-325 780 990
-325 778 992
-325 775 993
-324 771 992
-324 768 992
-324 765 992
-323 761 992
-323 757 991
-323 756 993
-322 751 992
-322 748 992
-321 744 991
-321 742 992
-321 739 992
-321 736 993
-321 734 994
-320 731 995
-320 728 995
-320 726 996
-320 723 997
-320 721 998
-320 718 999
-320 716 1000
-320 713 1000
-320 710 1001
-320 709 1003
-320 706 1003
-319 703 1004
-320 702 1007
-320 699 1007
-320 697 1008
-319 694 1008
-319 691 1009
-319 688 1009
-319 686 1011
-319 684 1012
-319 681 1012
-319 678 1012
-318 675 1012
-318 672 1012
-318 669 1012
-318 667 1014
-318 665 1015
-318 663 1017
-318 660 1017
-318 658 1018
-318 655 1019
-318 653 1020
-328 780 994
-328 777 995
-328 773 994
-327 768 992
-326 765 992
-326 762 992
-325 758 992
-325 756 993
-325 753 993
-324 749 992
-324 745 992
-324 743 993
-324 740 994
-324 738 995
-324 736 996
-324 734 998
-324 731 998
-323 727 998
-323 725 999
-323 723 1000
-322 719 999
-323 718 1002
-323 715 1002
-323 713 1004
-323 710 1005
-323 709 1007
-323 705 1006
-323 704 1009
-323 701 1009
-323 698 1010
-323 695 1010
-322 692 1010
-322 690 1011
-322 687 1012
-322 685 1013
-322 682 1013
-322 680 1014
-321 676 1013
-321 674 1014
-321 671 1014
-321 669 1016
-321 666 1017
-321 664 1018
-321 662 1019
-321 659 1019
-321 657 1021
-321 654 1021
-321 653 1024
-331 778 996
-331 774 995
-330 770 994
-329 767 994
-329 764 994
-329 760 994
-329 758 995
-328 755 996
-328 751 995
-327 748 995
-327 745 995
-327 743 997
-327 740 997
-327 738 999
-327 736 1000
-327 732 1000
-326 729 1000
-326 727 1001
-326 724 1001
-326 720 1001
-326 719 1003
-326 716 1003
-326 714 1005
-326 711 1006
-326 710 1008
-326 707 1008
-326 704 1009
-326 702 1010
-326 699 1011
-325 696 1011
-325 693 1010
-325 690 1011
-325 688 1012
-325 686 1014
-325 683 1014
-324 680 1014
-324 677 1014
-324 675 1016
-324 673 1017
-324 670 1018
-325 669 1020
-324 665 1019
-324 663 1020
-324 660 1020
-324 657 1021
-324 655 1022
-324 654 1025
-334 780 997
-333 775 995
-332 771 994
-332 767 994
-332 764 994
-331 761 995
-331 759 996
-331 756 996
-331 752 996
-330 749 996
-330 746 996
-330 744 998
-330 741 998
-330 739 1000
-330 737 1002
-330 734 1002
-330 731 1002
-329 728 1002
-329 725 1003
-329 722 1002
-329 721 1005
-329 717 1005
-329 716 1008
-329 713 1008
-329 711 1009
-329 708 1010
-329 706 1011
-329 703 1011
-329 700 1012
-328 697 1012
-328 694 1012
-328 692 1013
-328 689 1014
-328 687 1015
-328 685 1016
-327 682 1016
-327 679 1017
-327 677 1018
-327 674 1019
-327 672 1020
-327 669 1020
-326 665 1019
-326 663 1020
-326 661 1021
-326 658 1022
-326 656 1023
-327 656 1027
-327 653 1027
-337 780 997
-336 776 996
-335 772 995
-335 768 995
-334 765 995
-334 763 996
-334 760 997
-334 758 998
-334 754 997
-333 751 998
-333 749 999
-333 746 1000
-333 744 1001
-333 741 1002
-334 739 1004
-333 736 1004
-333 733 1004
-332 730 1004
-333 728 1006
-332 723 1004
-332 722 1007
-332 719 1007
-332 717 1009
-332 715 1010
-333 713 1012
-332 709 1011
-332 707 1012
-332 705 1013
-331 701 1012
-331 698 1013
-331 695 1013
-331 693 1014
-331 690 1015
-331 688 1016
-331 686 1017
-330 683 1017
-331 681 1019
-330 678 1019
-331 676 1021
-331 674 1022
-330 671 1022
-329 666 1020
-329 664 1021
-329 662 1022
-330 660 1024
-330 658 1026
-330 657 1028
-330 654 1028
-339 777 997
-338 773 996
-338 770 996
-338 767 997
-337 764 997
-338 762 999
-338 760 1000
-337 756 1000
-337 754 1001
-337 750 1001
-337 748 1002
-337 745 1003
-337 743 1004
-336 740 1005
-336 737 1005
-336 734 1005
-335 731 1005
-335 728 1005
-334 724 1004
-335 723 1007
-335 720 1008
-335 719 1011
-335 715 1010
-335 714 1013
-335 710 1012
-334 707 1012
-334 704 1012
-334 702 1013
-334 699 1013
-333 696 1013
-334 694 1015
-334 692 1017
-334 689 1017
-334 687 1019
-334 685 1020
-334 683 1021
-333 680 1021
-334 678 1023
-333 674 1022
-333 671 1022
-332 667 1021
-332 665 1022
-332 663 1023
-332 660 1024
-332 659 1026
-333 657 1028
-333 655 1029
-341 775 998
-341 772 999
-341 769 999
-341 766 999
-340 763 1000
-340 761 1001
-340 758 1002
-340 755 1002
-340 752 1003
-340 750 1004
-340 747 1005
-339 744 1005
-339 742 1006
-339 738 1006
-339 735 1006
-338 732 1006
-338 729 1006
-337 726 1006
-338 724 1008
-338 721 1009
-338 720 1011
-338 717 1012
-338 715 1014
-338 712 1013
-338 710 1015
-337 705 1013
-337 703 1014
-336 700 1014
-336 697 1014
-336 695 1016
-337 693 1018
-336 690 1018
-337 689 1021
-336 685 1020
-337 684 1022
-336 681 1022
-337 679 1025
-336 676 1024
-336 673 1025
-336 670 1024
-335 666 1023
-335 663 1023
-335 661 1024
-335 659 1026
-335 657 1028
-336 655 1030
-341 736 1007
-341 733 1007
-341 730 1007
-341 727 1008
-341 726 1010
-341 723 1011
-341 721 1013
-341 719 1014
-340 713 1014
-340 710 1015
-340 708 1016
-340 705 1017
-340 700 1019
-340 692 1020
-339 689 1020
-340 687 1022
-339 684 1022
-339 682 1023
-340 680 1026
-340 677 1026
-340 675 1027
-339 672 1027
-338 668 1025
-339 667 1028
-338 662 1026
-338 660 1027
-338 658 1029
-339 656 1031
-338 653 1030
-341 681 1022
-341 666 1027
-341 663 1027
-341 662 1029
-341 659 1030
-341 657 1032
-340 653 1030
-329 783 994
-331 784 994
-331 781 995
-334 785 995
-334 782 996
-338 787 997
-337 783 997
-341 790 1000
-340 785 999
-340 782 999
-86 776 1017
-88 775 1015
-87 768 1011
-88 768 1015
-87 761 1010
-87 755 1007
-86 751 1005
-86 748 1006
-86 744 1004
-86 741 1004
-86 736 1002
-86 732 1001
-90 775 1016
-90 768 1010
-90 765 1011
-89 757 1005
-89 754 1005
-89 749 1003
-89 747 1004
-88 742 1002
-88 739 1002
-88 735 1001
-88 731 1000
-88 728 999
-87 724 998
-87 719 996
-87 715 995
-87 710 992
-86 706 990
-86 701 987
-86 697 986
-86 692 984
-92 773 1013
-92 770 1013
-92 766 1012
-91 758 1006
-91 753 1004
-91 750 1003
-91 746 1003
-91 742 1001
-90 738 1000
-90 734 999
-90 730 998
-90 726 997
-90 723 997
-89 719 995
-89 714 993
-89 710 991
-88 704 988
-88 700 986
-88 696 985
-88 692 983
-87 687 981
-87 683 979
-87 679 977
-87 674 975
-86 670 973
-86 667 973
-86 662 970
-86 659 970
-86 656 969
-94 767 1005
-94 765 1006
-94 765 1010
-94 757 1004
-93 752 1002
-93 748 1001
-93 746 1002
-93 741 1000
-93 737 999
-93 734 999
-92 730 998
-92 726 997
-92 722 996
-92 719 995
-91 713 992
-91 709 990
-91 704 988
-90 699 985
-90 696 984
-90 691 982
-90 687 980
-89 682 978
-89 678 976
-89 675 975
-89 670 973
-88 667 972
-88 662 969
-88 658 968
-88 655 967
-96 767 1005
-96 763 1004
-96 762 1007
-96 757 1004
-96 751 1001
-95 748 1001
-95 744 1000
-95 740 999
-95 737 998
-95 733 997
-94 729 996
-94 726 996
-94 721 994
-94 717 993
-94 713 991
-93 708 988
-93 703 986
-93 699 984
-92 695 983
-92 691 982
-92 687 980
-92 683 978
-91 678 976
-91 673 973
-91 669 971
-90 665 970
-90 660 967
-90 657 966
-90 653 965
-98 764 1001
-98 761 1001
-98 760 1004
-98 755 1001
-98 751 1000
-98 748 1000
-97 743 998
-97 739 997
-97 735 996
-97 732 996
-97 727 994
-96 724 993
-96 720 992
-96 715 990
-96 711 989
-95 706 986
-95 703 985
-95 699 984
-95 694 982
-94 691 981
-94 686 979
-94 681 976
-93 677 974
-93 673 972
-93 668 970
-93 664 968
-92 660 966
-92 656 965
-92 653 964
-101 763 999
-101 763 1003
-100 758 1001
-100 756 1002
-100 749 998
-100 747 999
-100 742 997
-99 738 996
-99 735 995
-99 731 995
-99 727 993
-99 723 992
-98 719 991
-98 715 989
-98 710 987
-97 706 985
-97 702 984
-97 698 983
-97 694 981
-97 690 980
-96 685 977
-96 681 975
-95 676 972
-95 671 970
-95 666 967
-95 663 966
-94 659 964
-94 655 963
-103 762 998
-103 759 998
-102 755 997
-103 753 999
-102 749 997
-102 747 999
-102 742 997
-102 739 997
-102 735 995
-101 731 994
-101 726 992
-101 722 991
-100 718 989
-100 713 987
-100 709 985
-100 704 983
-99 701 982
-99 697 981
-99 693 980
-99 689 979
-98 685 977
-98 680 974
-98 676 972
-97 671 970
-97 666 967
-97 663 966
-96 658 963
-96 654 962
-105 763 999
-105 760 999
-105 756 998
-105 753 998
-105 749 997
-105 746 998
-104 743 997
-104 739 996
-104 734 994
-104 730 993
-103 726 991
-103 721 989
-103 717 988
-102 713 986
-102 708 984
-102 703 981
-101 699 980
-101 696 979
-101 691 977
-101 688 977
-100 684 975
-100 679 973
-100 674 970
-99 671 969
-99 666 966
-99 662 964
-98 657 962
-98 654 961
-107 760 995
-107 759 997
-107 755 997
-107 752 997
-107 749 997
-107 746 997
-107 742 996
-106 739 996
-106 733 993
-106 729 991
-105 725 990
-105 720 988
-105 716 986
-104 711 984
-104 708 983
-104 703 981
-104 699 979
-103 694 977
-103 691 977
-103 688 976
-102 683 973
-102 679 972
-102 674 969
-102 670 967
-101 665 965
-101 661 963
-101 657 962
-100 654 961
-109 758 992
-109 757 995
-109 755 996
-109 752 997
-109 749 997
-109 746 997
-109 743 997
-109 739 996
-108 734 994
-108 730 992
-108 724 989
-107 720 987
-107 716 986
-107 711 983
-106 706 981
-106 702 979
-106 698 978
-105 694 977
-105 691 976
-105 687 975
-105 683 973
-104 678 971
-104 674 969
-104 669 966
-103 665 964
-103 660 962
-103 656 960
-102 653 959
-111 757 991
-112 757 994
-111 753 994
-111 751 995
-111 748 995
-111 745 996
-111 743 997
-111 738 995
-111 734 994
-110 730 992
-110 724 989
-109 719 986
-109 715 984
-109 711 983
-108 706 980
-108 702 979
-108 697 977
-108 693 975
-107 689 974
-107 686 973
-107 682 972
-107 678 970
-106 674 969
-106 669 966
-106 665 965
-105 661 962
-105 657 961
-105 653 959
-114 760 994
-114 758 996
-114 754 995
-114 752 996
-114 748 995
-114 745 995
-113 742 995
-113 738 994
-113 733 992
-112 728 989
-112 724 988
-112 719 986
-111 715 984
-111 710 982
-111 706 980
-110 702 979
-110 697 976
-110 692 974
-109 689 973
-109 685 972
-109 681 970
-109 677 969
-108 674 968
-108 669 965
-108 665 964
-107 660 961
-107 656 960
-107 653 959
-117 764 999
-117 761 999
-117 757 998
-116 753 997
-116 748 995
-116 744 994
-116 740 993
-115 737 993
-115 732 991
-115 728 989
-114 723 987
-114 719 985
-114 714 983
-113 710 982
-113 706 980
-113 702 979
-112 697 976
-112 693 975
-112 688 972
-111 684 970
-111 680 969
-111 677 969
-111 674 968
-110 669 966
-110 666 965
-110 661 962
-109 657 961
-109 654 960
-120 765 1000
-119 762 1000
-119 758 999
-119 753 997
-118 748 995
-118 744 994
-118 740 993
-118 736 992
-117 732 990
-117 728 989
-117 723 987
-116 719 985
-116 714 983
-116 711 982
-115 705 979
-115 702 978
-115 697 976
-114 693 974
-114 688 972
-113 684 970
-113 680 968
-113 676 967
-113 673 967
-112 669 965
-112 665 964
-112 661 962
-112 657 961
-111 654 960
-122 764 999
-121 760 998
-121 757 998
-121 753 997
-121 748 995
-120 744 994
-120 740 992
-120 736 991
-119 730 988
-119 727 988
-119 723 986
-119 719 985
-118 714 983
-118 709 980
-117 705 979
-117 701 977
-117 696 974
-116 691 972
-116 686 969
-115 682 967
-115 678 966
-115 675 965
-115 672 966
-115 669 965
-114 665 964
-114 661 962
-114 658 962
-114 655 961
-124 765 1000
-124 760 998
-124 757 998
-123 752 996
-123 748 995
-123 743 992
-122 739 991
-122 734 989
-121 729 986
-121 725 985
-121 721 983
-121 718 983
-120 712 980
-120 709 979
-119 704 977
-119 700 975
-119 695 973
-118 690 970
-118 686 968
-117 681 966
-117 677 964
-117 674 964
-117 670 963
-117 668 963
-116 665 963
-116 661 962
-116 658 961
-116 655 961
-116 653 962
-126 764 998
-126 759 996
-126 756 997
-126 752 995
-125 749 995
-125 743 992
-125 739 991
-124 735 989
-124 729 986
-123 725 984
-123 719 981
-123 716 981
-122 712 979
-122 707 977
-121 703 975
-121 698 973
-121 694 971
-120 690 969
-120 684 966
-120 681 965
-119 677 964
-119 674 963
-119 671 963
