# .PCD v0.7 - Point Cloud Data file format
VERSION 0.7
FIELDS x y z
SIZE 4 4 4
TYPE F F F
COUNT 1 1 1
WIDTH 2427
HEIGHT 1
VIEWPOINT 0 0 0 1 0 0 0
POINTS 2427
DATA ascii
470.99988 539 1083
472.49988 541.5 1084
477.99988 547.5 1082.5
477.99988 552 1082
477.99988 558 1084
481.99988 557 1082.5
485.99988 560 1080
491.99988 572 1083
496.49988 577.5 1082
499.99988 583 1082
499.99988 586 1082
503.49988 591 1082.5
506.99988 595 1084
511.99988 601 1080
511.99988 607 1080
513.49988 611 1082.5
518.99988 620 1082
523.99988 628 1081
526.99988 634 1083
531.99988 642 1080
549.99988 667 1082
553.99988 671 1082
564.99988 680 1081
567.99988 683 1083
573.49988 686.5 1083
578.99988 688 1081
577.99988 690 1084
583.99988 693 1080
589.99988 696 1082
592.99988 700 1083
597.99988 702 1083.5
603.99988 705 1082
608.99988 707 1080
614.99988 710 1082
618.99988 711 1081
632.99988 717 1082
635.99988 718 1081
637.99988 722 1083
643.99988 732 1084
648.99988 737 1082
652.99988 735 1080
655.99988 744 1084
658.99988 756 1082
674.99988 764 1080
669.99988 765 1083
674.99988 766 1082
671.99988 773 1082
669.99988 780 1082
697.99988 800 1081
684.99988 809 1082
697.99988 816 1080
692.99988 829 1081
-221.00011 -85 1085
-216.50011 -82 1088.5
-211.00011 -80 1085
-208.00011 -77 1087
-201.50011 -73 1087.5
-198.00011 -72 1087
-191.00011 -69 1088
-182.00011 -67 1087
-177.00011 -67 1086
-172.00011 -64 1087
-167.50011 -62.5 1088
-164.00011 -62 1085
-156.00011 -56 1089
-154.00011 -56 1085
-151.00011 -54 1089
-147.50011 -52.5 1086
-143.00011 -49 1088
-138.00011 -46 1087
-136.00011 -44 1088
-122.00011 -32 1086
-116.50011 -27 1086.5
-110.00011 -21 1085
-108.00011 -18 1086
-103.00011 -13 1089
-96.000114 -7 1088.5
-83.000114 4 1085
-80.000114 9 1087
-76.000114 12.5 1086.5
-72.000114 16 1086
-67.000114 24 1089
-65.000114 26 1089
-62.000111 29 1085
-52.000111 39 1085
-50.000111 41 1087
-45.000111 44 1085
17.999889 92 1085
37.999889 102 1086
55.999889 110 1086
62.999889 113 1085
67.999886 115 1085
75.999886 120 1087
82.499886 122.5 1087.5
85.999886 125 1088
95.999886 133 1089
102.49989 136.5 1088
106.99989 138 1086
111.99989 141 1087
116.99989 143 1089
118.99989 146 1089
129.99989 154 1086
131.99989 156 1086
139.99989 161 1087
143.49989 164 1087
147.99989 167 1086
150.99989 169 1086
153.99989 173 1088
157.99989 177 1089
162.99989 180 1087
168.99989 185 1088
172.49989 191.5 1088.5
176.99989 193 1085
186.99989 204 1086
192.99989 206 1085
210.99989 222 1085
215.99989 230 1087
233.49989 238.5 1086.5
236.99989 241 1088
242.99989 244 1085
246.99989 248 1086.5
251.99989 253 1089
258.99988 258 1087
262.99988 261.5 1088
269.99988 266 1087
271.99988 268 1089
274.99988 271 1088
277.99988 274 1089
283.99988 277 1085
288.49988 281.5 1086.5
293.49988 286.5 1087.5
297.99988 291 1088
300.99988 294 1087
303.99988 297 1085
307.99988 301.5 1085.5
311.49988 306 1087
314.99988 311 1087
320.99988 316 1086
322.99988 321 1089
326.49988 326 1087
328.99988 330 1088
331.99988 333 1086
335.99988 337 1085
337.99988 342 1086
343.99988 350 1087
346.99988 353 1088
349.99988 357 1085
352.99988 362 1087
355.99988 368 1087
358.99988 371 1086
363.49988 377.5 1088
367.99988 382 1087
371.49988 387 1087
374.99988 392 1085
377.49988 396 1086.5
382.49988 402 1085.5
382.99988 406 1088
386.99988 411 1086
389.99988 416 1087
392.99988 419 1085
397.49988 422.5 1086.5
401.99988 428 1086
405.99988 434 1086
408.99988 439 1087
416.99988 451 1089
420.99988 455 1087
424.99988 462 1085
427.99988 467 1087
430.99988 471 1086
434.99988 477 1085
434.99988 480 1086
440.99988 489 1087
444.99988 495 1087
451.99988 506 1085
454.99988 514 1087
458.99988 521 1087
461.99988 524 1086
465.99988 536 1089
469.99988 543 1087
473.99988 544 1085
468.99988 545 1089
472.99988 547 1087
473.49988 551.5 1086.5
476.99988 553 1087
483.49988 561.5 1087
486.99988 563 1087
486.99988 566 1088
489.99988 572 1089
493.99988 579 1089
494.99988 583 1088
498.99988 588 1085
497.99988 590 1088
501.99988 593 1088
506.99988 598 1085
506.99988 601 1086
509.99988 610 1089
514.99988 615 1085
516.99988 621 1088
525.99988 636 1086
528.99988 641 1089
533.99988 646 1086
537.99988 651 1085
540.99988 654 1085
543.99988 660 1089
551.99988 671 1088
555.99988 673 1085
558.99988 676 1087
561.99988 679 1088
584.99988 694 1086
586.99988 697 1088
593.99988 700 1089
604.99988 706 1088
609.99988 708 1085
612.99988 711 1087
618.49988 712 1086.5
623.99988 713 1086
626.99988 713 1087
629.99988 717 1088
633.99988 721 1088
637.99988 725 1088
647.99988 739 1085
650.99988 739 1086
651.99988 742 1086
655.99988 750 1086
659.99988 757 1088
663.99988 758 1087
664.99988 763 1086
658.99988 771 1088
661.99988 771 1089
671.99988 779 1085
677.99988 795 1085
677.99988 816 1086
-307.00012 -126 1094
-225.00011 -87 1094
-221.50011 -83.5 1092
-213.00011 -79 1091
-209.00011 -77 1094
-205.00011 -74 1090
-194.00011 -69 1091
-188.00011 -66 1092
-174.00011 -64 1093
-168.00011 -61 1093
-161.00011 -59 1090
-158.00011 -56 1094
-153.00011 -54 1093
-148.00011 -51 1092
-140.00011 -46 1092
-138.00011 -43 1094
-133.00011 -41 1090
-130.00011 -38 1090
-128.00011 -36 1091
-125.00011 -33 1092
-122.00011 -31 1093
-117.00011 -26 1093
-115.00011 -23 1094
-112.00011 -21 1091
-110.00011 -18 1092
-105.00011 -16 1090
-100.00011 -11 1090
-97.000114 -6 1094
-91.000114 -2 1090
-87.000114 2 1092
-83.000114 6 1092
-78.000114 12.5 1093
-73.000114 17.5 1092
-70.000114 21 1091
-62.000111 31 1093
-59.000111 34 1091
-57.000111 36 1092
-54.000111 39 1093
-52.000111 41 1092
-47.000111 44 1091
1.999889 82 1091
12.999889 89 1092
24.999889 97 1093
29.999889 99 1091
34.999889 102 1093
39.999889 104 1094
42.999889 104 1091
47.999889 107 1091
52.999889 110 1090
57.999889 112 1093
60.999889 112 1090
66.999886 116 1091.5
72.999886 120 1092
87.999886 127 1091
91.999886 131 1092.5
98.999886 135 1092
100.99989 137 1094
107.49989 140 1091.5
112.49989 142.5 1093.5
121.99989 148 1090
123.99989 151 1091
126.99989 153 1091
128.99989 155 1093
133.49989 158 1091.5
136.99989 161 1090
144.99989 166 1091
146.99989 169 1091
149.99989 171 1092
151.99989 174 1093
159.99989 179 1092
167.99989 187 1093
170.99989 192 1092
183.99989 203 1090
188.99989 205 1092
194.99989 212 1090
196.99989 213 1092
199.99989 216 1092
201.99989 216 1090
207.99989 219 1090
209.99989 224 1090
209.99989 226 1093
212.99989 227 1090
233.99989 240 1092
239.99989 243 1090
242.99989 246.5 1093.5
256.99988 257.5 1093
267.99988 266 1092.5
279.99988 276 1090
282.99988 279 1090
286.99988 282.5 1092
290.99988 287 1091
293.99988 290 1092
296.99988 293 1091
299.99988 296 1090
302.99988 299 1090
304.99988 301 1091
307.99988 304 1090
309.99988 309 1094
313.99988 312 1091
318.49988 316.5 1090.5
321.99988 323 1093
327.99988 331 1094
330.99988 334 1093
333.99988 338 1091
336.99988 343 1092
339.99988 346 1091
347.49988 356.5 1091
347.99988 360 1094
351.99988 364 1091
354.99988 370 1090
357.49988 373 1092.5
360.99988 378 1092
363.99988 381 1092
366.99988 384 1090
365.99988 386 1094
369.99988 390 1091
372.99988 393 1090
371.99988 395 1094
375.99988 398 1092
378.99988 403 1092
381.99988 407 1092
384.99988 413 1092
393.49988 421.5 1090.5
397.99988 426 1091
400.99988 429 1090
403.49988 436 1092
407.99988 441 1090
410.99988 444 1091
413.99988 447 1090
416.99988 453 1092
419.49988 457.5 1092
422.99988 462 1091
425.99988 468 1093
429.99988 472 1090
436.99988 481 1091
439.99988 490 1093
442.99988 496 1093
446.99988 501.5 1090
449.99988 506 1091
460.99988 528 1091
461.49988 532.5 1092
464.99988 538 1092
463.99988 540 1094
468.99988 548 1090
469.99988 554 1091
471.99988 556 1093
477.49988 558 1090.5
477.99988 560 1094
481.99988 563 1094
485.99988 568 1090
488.99988 574 1092
492.99988 584 1092
492.99988 586 1094
495.99988 590 1094
500.99988 596.5 1091
504.99988 602 1090
505.99988 605 1090
507.99988 611 1093
512.99988 615 1091
515.99988 622 1092
519.99988 628 1090.5
519.99988 631 1094
533.99988 649 1094
537.99988 653 1094
545.99988 664 1094
553.99988 673 1091
556.99988 676 1093
563.49988 681.5 1090.5
567.99988 685 1092
571.99988 687 1090
577.49988 690 1091.5
582.99988 695 1090
588.99988 698 1093
597.99988 703 1092
599.99988 706 1093
603.99988 708 1091
607.99988 709 1090
609.99988 711 1094
613.99988 712 1093
616.99988 712 1093
621.99988 714 1091
622.99988 715.5 1092.5
628.99988 718 1092
633.99988 723 1090
637.99988 728 1090
641.49988 733 1091.5
644.99988 738 1092
648.99988 743 1092
648.99988 745 1094
652.49988 752 1092
653.99988 757 1094
658.99988 762 1092
657.99988 765.5 1092
664.99988 771 1090
661.99988 778 1091
665.99988 778 1091
664.99988 781 1093
668.99988 781 1093
666.99988 786 1091
669.99988 807 1093
672.99988 805 1092
685.99988 812 1090
-342.00012 -132 1098
-337.00012 -132 1096.5
-333.00012 -131 1098
-317.00012 -129 1097
-308.00012 -126 1099
-251.00011 -102 1095
-227.00011 -87 1099
-217.00011 -79 1097
-212.50011 -77.5 1096.5
-206.00011 -74 1098
-201.00011 -71 1097
-182.00011 -63.5 1097
-177.00011 -64 1095
-170.00011 -61 1098
-165.00011 -58 1099
-161.50011 -57.5 1096.5
-155.00011 -53 1098
-150.00011 -51 1096
-145.00011 -48 1097
-142.00011 -46 1098
-135.00011 -41 1096
-131.00011 -37 1097.5
-126.00011 -32 1097.5
-120.00011 -28 1095
-116.00011 -22 1096.5
-112.00011 -18 1096
-107.00011 -16 1097
-103.00011 -12 1097
-100.00011 -8 1095
-93.000107 -2 1095.5
-87.000114 4 1095
-87.000107 6 1099
-82.000114 9 1095
-79.000107 14 1099
-77.000107 16 1099
-74.000107 19 1097
-72.000107 21 1098
-69.000107 24 1096
-67.000107 26 1096
-64.000114 29 1095
-59.000111 36 1099
-49.000111 44 1099
-43.000111 46 1097.5
14.999889 91 1098
19.999889 94 1095
44.999889 106 1098
49.999889 109 1098
54.999889 111 1099
62.999889 114 1097
69.999893 119 1099
74.999893 121 1099
77.999893 122 1096
82.999886 124 1095
86.999893 128 1097
92.999893 134 1099
96.999893 136 1097
102.99989 140 1096
106.99989 142 1097
111.99989 145 1097.5
116.99989 146.33333 1096
117.99989 150 1099
122.49989 151 1096.5
127.49989 156 1097.5
132.49989 160 1097.5
137.49989 162.5 1097.5
142.99989 166.5 1096.5
147.99989 171.5 1097.5
153.49989 175.5 1097
156.99989 178 1096
163.49989 182 1097
167.99989 189 1096
168.49989 192.5 1098
172.99989 194 1095
171.99989 196 1098
185.99989 205 1096
190.99989 207 1097
198.99989 217 1098
203.99989 218 1097
206.99989 220 1097
208.99989 228 1097
211.99989 228 1098
213.99989 231 1099
236.99989 243 1097
248.49989 251.5 1095
251.99989 255 1098
259.99988 261 1095
262.99988 264 1096
264.99988 266 1097
267.99988 269 1099
272.49988 271 1095.5
277.49988 276.5 1096
282.99988 281 1097.5
288.49988 286.5 1098
292.99988 292 1095
295.99988 294 1097
297.99988 297 1097
302.49988 301 1097
306.99988 306 1095
309.99988 311 1097
312.99988 314 1096
311.99988 316 1099
315.99988 317 1095
318.49988 320.5 1097
320.99988 324 1098
323.99988 328 1096
325.99988 333 1099
329.99988 336 1097
332.99988 339 1096
334.99988 344 1099
338.99988 348 1096
341.49988 352 1097
344.99988 356 1096
346.99988 361 1098
350.99988 365 1096
352.99988 370 1098
357.49988 377 1098.5
362.99988 382 1096
365.99988 388 1096
368.49988 392 1098
370.99988 396 1099
374.99988 400 1096
376.99988 405 1099
380.99988 408 1098
383.99988 415 1096
386.99988 418 1096
386.99988 420 1098
391.99988 422.5 1095.5
395.99988 426 1098
399.49988 431 1096.5
401.99988 438 1098
404.99988 441 1098
408.99988 445 1095
411.99988 448 1096
414.99988 454 1098
417.99988 459 1099
421.99988 463 1096
424.99988 470 1096
434.99988 483 1095
447.99988 506 1099
451.99988 514 1096
451.99988 516 1098
455.99988 521.5 1096.5
459.99988 535 1097
462.99988 542 1097
463.99988 545 1096
473.99988 559 1096
482.99988 567 1096
483.99988 571 1098
487.99988 577 1096.5
487.99988 584 1098
491.99988 588 1097
494.99988 594 1099
495.99988 592 1096
499.99988 599 1095
499.99988 602 1096
503.99988 606 1095
505.99988 611 1099
509.99988 615 1098
514.99988 623 1096
522.99988 634 1095
520.99988 636 1099
527.49988 642 1097
535.99988 654 1099
540.99988 660 1095
558.99988 680 1099
562.99988 682 1097
567.99988 686 1097
572.99988 690 1098
576.99988 691 1097
583.99988 695 1097
589.99988 699 1098
593.99988 703 1098
602.99988 708 1098
613.99988 713 1097.5
622.99988 716.5 1096.5
626.99988 719 1096
625.99988 721 1099
630.99988 724 1096
633.99988 726 1099
634.99988 731 1097
643.99988 740 1096
649.49988 753 1096.5
653.99988 759 1096
655.99988 755 1097
648.99988 760 1099
660.99988 763 1097
653.99988 768 1099
663.99988 767 1098
668.99988 788 1095
669.99988 804 1099
-341.00012 -128.5 1103
-337.00012 -128 1104
-334.00012 -128 1104
-322.00012 -128 1104
-303.00012 -123 1100
-247.00011 -99 1103
-226.00011 -89 1102
-226.00011 -84 1104
-222.50011 -82.5 1100.5
-218.00011 -79 1103
-213.00011 -76 1104
-208.00011 -74 1102
-203.00011 -71 1101
-197.00011 -68.5 1100.5
-191.00011 -66 1102
-185.00011 -63 1101
-175.00011 -61 1101
-172.00011 -61 1103
-167.00011 -58 1103
-162.00011 -56 1103
-157.00011 -53 1102
-152.00011 -51 1102
-147.00011 -48 1102
-144.00011 -46 1104
-138.00011 -42 1102
-134.00011 -38 1103
-129.00011 -33 1104
-126.00011 -30 1104
-122.00011 -28 1100
-119.00011 -26 1101
-116.00011 -20 1103
-114.00011 -18 1104
-109.00011 -16 1100
-107.00011 -13 1101
-103.00011 -9 1102.5
-99.000107 -6 1101
-97.000107 -3 1101
-94.000107 -1 1102
-91.000107 1 1102
-89.000107 3 1100
-84.000107 8 1100
-82.000107 11 1100
-77.500107 17 1103.5
-72.500107 22 1102.5
-67.500107 27 1103
-62.500107 32 1102
-56.000111 38 1101
-47.000111 46 1100
16.999889 93 1104
26.999889 98 1103
32.999889 101 1100
36.999889 103 1102
41.999889 106 1103
46.999889 108 1104
51.999889 111 1104
58.499889 113.5 1102.5
64.999893 116 1101
66.999893 118 1104
72.999893 121 1102
79.999893 124 1102
83.999893 127.5 1103.5
89.999893 132 1100
94.999893 136 1103
98.999893 139 1101.5
103.99989 143 1102
107.99989 144 1100
109.99989 146 1103
113.99989 148 1102
117.99989 151 1104
121.99989 153 1101
125.99989 157 1101
131.99989 162 1104
137.99989 164 1103
140.99989 167 1103
143.99989 170 1102
145.99989 172 1103
147.99989 175 1104
153.99989 178 1101
157.49989 180 1102
160.99989 183 1103
163.99989 186.5 1102.5
166.99989 193 1102
168.99989 196 1102
171.99989 198 1102
181.99989 204 1102
188.49989 207.5 1101.5
192.99989 214 1103
195.99989 214 1100
194.99989 217 1103
201.99989 218 1101.5
205.99989 222 1103
234.99989 243 1104
236.99989 246 1104
241.99989 248 1100
246.99989 253 1102
252.49989 257.5 1102
257.49988 261 1102
262.49988 266.5 1103.5
269.99988 271 1102
272.99988 273 1102
274.99988 276 1103
277.99988 279 1102
280.99988 281 1103
288.99988 290 1101
291.99988 293 1102
294.99988 296 1100
297.99988 299 1101
299.99988 301 1102
302.99988 304 1102
305.99988 307 1101
308.99988 312 1102
314.99988 318 1100
319.99988 326 1103
322.99988 329 1102
324.99988 334 1104
328.99988 337 1102
331.99988 340 1102
336.99988 349 1103
339.99988 354 1102
343.99988 358 1100
345.99988 363 1103
349.99988 366 1100
351.99988 372 1102
354.99988 377 1104
357.99988 380 1102
360.99988 384 1101
362.49988 387.5 1102.5
366.99988 394 1104
369.99988 397 1104
372.99988 400 1104
378.99988 409 1104
382.99988 416 1101
384.99988 421 1104
388.99988 422 1101
393.49988 426.5 1102
397.99988 433 1103
400.99988 439 1103
404.99988 443 1101
406.99988 446 1102
410.99988 449 1101
413.99988 455 1102
418.49988 462.5 1102
422.99988 470 1104
426.99988 471 1100
429.99988 477 1102
433.99988 484 1100
436.99988 489 1101
440.99988 496 1100
443.99988 502 1102
446.99988 507 1103
453.99988 523 1103
454.49988 528 1101.5
457.99988 538 1104
462.49988 547 1102.5
471.99988 559 1102
474.99988 562 1103
475.99988 560 1101
478.99988 567 1103
482.99988 573 1101
482.99988 575 1103
486.99988 580 1101
486.99988 585 1103
490.99988 591 1102
493.99988 597 1103
497.99988 602 1103
497.99988 605 1103
501.49988 607.5 1102
505.99988 614 1101
507.99988 616 1103
512.99988 624 1102
511.99988 626 1104
516.99988 631 1102
519.99988 636 1104
526.99988 644 1103
529.99988 648 1104
542.99988 663 1102
545.99988 667 1103
550.99988 672 1100
553.99988 676 1100
560.99988 683 1102
564.99988 687 1102
566.99988 686 1103
576.99988 691 1104
585.99988 697 1101
589.99988 701 1101
591.99988 703 1104
597.99988 706.5 1102.5
603.99988 710 1101
608.99988 712 1101.5
614.99988 715 1101
617.99988 717.5 1100.5
621.99988 720 1100
625.99988 724 1101
629.99988 725 1100
631.99988 730 1104
636.99988 732 1102
638.99988 737.5 1102.5
641.99988 744 1101
642.99988 748 1101
642.99988 751.5 1103.5
647.99988 756 1100
648.99988 763 1101
648.99988 766 1102
653.99988 772.5 1101
662.99988 772 1103
656.99988 775 1102
657.99988 781 1103
662.99988 784 1100
665.99988 790 1103
665.99988 799 1100
673.99988 808 1100
676.99988 823 1100
-346.00012 -128 1108
-344.00012 -128 1105
-331.00012 -128 1106
-328.00012 -128 1107
-311.00012 -125 1109
-309.00012 -125 1106
-303.00012 -122 1109
-297.00012 -120 1108.5
-291.50012 -119 1109
-252.00011 -102 1105
-248.00011 -99 1109
-235.50011 -92.5 1107.5
-230.00011 -87 1108.5
-228.00011 -86 1106
-223.00011 -81 1107
-220.00011 -78 1107
-215.00011 -76 1108
-209.00011 -73 1109
-204.00011 -71 1109
-199.00011 -68 1108
-187.00011 -63 1107
-177.00011 -61 1106
-179.00011 -60 1108
-169.00011 -58 1107
-164.00011 -55 1108
-159.00011 -53 1109
-154.00011 -50 1107
-149.00011 -48 1105
-146.00011 -45 1108
-141.00011 -43 1106
-137.50011 -39 1107.5
-131.00011 -35 1105
-124.00011 -28 1106
-121.00011 -25 1107
-119.00011 -23 1107
-112.00011 -15 1107
-109.00011 -13 1107
-106.00011 -10 1109
-103.00011 -8 1108
-101.00011 -5 1108
-98.000107 -3 1108
-96.000107 0 1108
-92.000107 2 1107.5
-87.500107 7 1105
-82.500107 12 1106
-79.000107 18 1108
-76.000107 21 1109
-74.000107 23 1108
-71.000107 26 1109
-69.000107 28 1109
-64.000107 33 1109
-61.000111 36 1109
-52.500111 42 1105
-41.000111 48 1106
-39.000111 48 1106
4.9998903 83 1108
6.9998903 86 1105
21.999889 96 1105
29.999889 101 1105
34.999889 103 1107
44.999889 108 1109
49.999889 110 1109
54.999889 113 1108
61.999889 116 1106
69.999893 120 1109
76.999893 123 1108
79.999893 126 1108
81.999893 128 1109
88.499893 132 1105.5
91.999893 136 1107
99.999893 141 1105
101.99989 143 1107
104.99989 146 1108
107.99989 146 1105
112.99989 149 1106
114.99989 151 1108
119.99989 154 1107
123.99989 157.5 1106
127.99989 159 1105
135.99989 164 1105
137.99989 166 1108
140.99989 169 1106
143.99989 172.5 1108.5
151.99989 178 1106
157.99989 182 1106
160.99989 186 1107.5
163.49989 191 1106.5
166.99989 196.66667 1106.3334
168.99989 200 1107
178.99989 205 1106
182.66656 206 1107
185.99989 208 1109
188.49989 211 1106
191.99989 216 1108
204.99989 224 1105
215.99989 232 1106
233.99989 245 1109
238.99989 248 1108
242.99989 252 1107.5
251.99989 258 1109
254.99989 261 1109
257.99988 264 1108
267.49988 271 1106.5
272.49988 276.5 1107.5
277.99988 281.5 1109
282.99988 284 1106
284.99988 289 1108
285.99988 287 1105
287.99988 291 1107
290.99988 294 1107
293.99988 297 1106
297.49988 301 1108
303.49988 307 1106.5
303.99988 310 1109
307.99988 314 1105
309.99988 316 1107
313.99988 320 1105
315.99988 323.5 1107
318.99988 327 1108
321.99988 331 1106
323.99988 335 1109
326.99988 339 1107
329.99988 341 1108
333.99988 345 1105
335.99988 350 1106
338.99988 356 1106
341.99988 359 1106
343.49988 362.5 1108.5
348.49988 368.5 1107
350.99988 373 1106
353.99988 378 1108
356.99988 383 1108
359.99988 387 1107
363.99988 391 1105
374.99988 405 1106
377.99988 411 1106
380.99988 417 1107
386.99988 422 1108
389.99988 425 1109
393.99988 431 1106
396.49988 436 1107.5
399.99988 441 1106
402.99988 444 1107
405.99988 447 1106
409.49988 452 1106.5
412.49988 457 1107.5
415.99988 463 1106
418.99988 466 1105
425.99988 472 1105
428.99988 478 1106
438.99988 497 1105
444.99988 511 1108
445.99988 510 1105
449.99988 516 1105
452.99988 530 1109
456.49988 537 1107
459.99988 549 1109
463.99988 556 1108
467.49988 558 1107.5
472.99988 562 1106
474.99988 566 1107
477.99988 571.5 1107
477.99988 578 1109
481.99988 577 1106
481.49988 581 1108
485.99988 587 1106
489.99988 594 1106
488.99988 596 1108
492.99988 599 1108
499.99988 610 1108
502.99988 613 1108
507.99988 618 1106
507.99988 621 1107
510.99988 627 1109
514.99988 631 1108
522.99988 640 1105
531.99988 652 1109
537.99988 658 1105
546.99988 671 1109
552.99988 677 1107.5
558.99988 683 1107
561.99988 687 1108
567.49988 688 1107.5
573.99988 690 1105
576.99988 693 1106
580.99988 694 1105
582.99988 697 1107
590.99988 704 1108
593.99988 705 1107
600.99988 709 1108
604.49988 712 1107.5
608.99988 715 1106
612.49988 717 1106.5
618.99988 721.33331 1106
622.99988 723 1108
630.99988 732 1108
632.99988 735.5 1107.5
636.49988 742 1106
640.99988 754 1109
656.99988 753 1109
645.99988 766 1108
652.49988 777 1106.5
658.99988 782 1109
659.99988 786 1108
661.99988 801 1109
661.99988 814 1106
-342.00012 -125 1112
-338.00012 -125 1113
-332.50012 -125 1114
-326.00012 -125 1114
-323.00012 -125 1114
-316.00012 -125 1113
-313.00012 -125 1113
-305.00012 -122 1111
-300.00012 -119 1111
-293.00012 -117 1113.5
-288.00012 -117 1112.5
-250.00011 -98 1113
-242.00011 -96 1114
-237.00011 -92 1111.5
-232.00011 -91 1110
-235.00011 -88 1111
-232.00011 -88 1111
-227.00011 -82.333336 1111.3334
-206.00011 -70 1114
-201.00011 -68 1114
-194.00011 -65 1110
-189.00011 -63 1111
-182.50011 -60 1111.5
-172.00011 -58 1112
-166.00011 -55 1112
-161.00011 -53 1112
-156.00011 -50 1111
-151.00011 -48 1110
-148.00011 -45 1113
-143.00011 -43 1112
-141.00011 -40 1110
-138.00011 -38 1112
-132.00011 -34 1111
-127.00011 -29 1110.5
-122.00011 -24 1112.5
-117.00011 -19 1110.5
-115.00011 -15 1114
-111.00011 -13 1113
-100.00011 -3 1114
-98.000107 0 1114
-93.000107 3 1112
-91.000107 6 1112
-88.000107 8 1111
-86.000107 11 1111
-83.000107 13 1112
-81.000107 17 1111.5
-77.000107 22 1112.5
-72.000107 27 1113.5
-66.000107 31 1110
-59.000111 38 1110
-56.000111 41 1114
-49.000111 46 1111
-44.000111 48 1113
9.9998913 88 1113
11.999891 90 1114
39.999889 105 1111
46.999889 110 1114
59.999889 115 1112
63.999889 118 1113
66.999893 120 1114
73.999893 123 1113
84.999893 130 1110
86.999893 133 1110
88.999893 135 1113
93.499893 138 1111.5
97.999893 141.5 1112
108.49989 148 1111
108.99989 150 1114
112.99989 151.5 1113
116.99989 153 1110
119.99989 156 1110
121.99989 158 1111
124.99989 161 1112
131.99989 163 1111
134.99989 167 1112
137.99989 169 1110
139.99989 171 1111
141.99989 173 1113
148.99989 177.5 1110.5
153.49989 181 1112
157.99989 184 1112
157.99989 186 1114
160.99989 189 1110
159.99989 191 1112
162.99989 194 1110
163.99989 197.5 1113.5
167.99989 202 1113
175.99989 204 1114
176.99989 207 1112
181.99989 208 1114
188.99989 212 1113
197.49989 217 1113.5
201.49989 221.5 1113
203.99989 226 1111
207.99989 228 1113.5
211.99989 231 1110
216.99989 234 1111
236.99989 248 1112.5
240.99989 252 1114
247.99989 256 1112
259.99988 266 1110
262.99988 269 1111
264.99988 271 1113
267.99988 274 1112
269.99988 276 1113
272.99988 279 1113
281.99988 285 1111
283.99988 290 1114
286.99988 293 1112
289.99988 296 1112
291.99988 298 1113
294.99988 301 1113
296.99988 304 1114
299.99988 307 1113
302.99988 312 1114
307.49988 316.5 1111.5
311.99988 321 1111
317.99988 329 1112
319.99988 334 1114
320.99988 332 1110
322.99988 337 1114
327.49988 341.5 1112.5
332.49988 347 1111.5
334.99988 353 1111
337.99988 358 1112.5
340.99988 362 1113
343.99988 366 1111
346.99988 371 1113
349.99988 375 1110
352.99988 380 1111
354.99988 385 1114
358.99988 389 1111
361.49988 393 1112
364.99988 395 1111
367.99988 398 1110
369.99988 403 1114
370.99988 401 1110
373.99988 406 1112
376.49988 413 1113
378.99988 417 1114
382.99988 421 1111
385.99988 424 1112
388.99988 428 1112.5
392.99988 434 1110
393.49988 437.5 1112
397.99988 442 1112
403.49988 447 1110.5
403.99988 451 1113
406.99988 454 1113
409.99988 459 1114
414.99988 464 1111
416.99988 466 1113
422.49988 471.5 1111
440.99988 501 1110
447.99988 517 1110
447.49988 520.5 1112.5
451.99988 532 1110
454.99988 540 1114
458.99988 550 1114
462.99988 557 1113
468.33322 561.33331 1112.3334
468.99988 567.5 1114
472.99988 568 1111
473.49988 572 1112
472.99988 576 1114
476.49988 577 1112
480.99988 584 1111
483.99988 587 1112
483.99988 590 1113
486.99988 596 1114
491.99988 602 1110
494.99988 606 1112
498.99988 611 1112
501.99988 616 1113
505.99988 621 1113
508.99988 628 1113
511.99988 631 1114
516.99988 636 1112
522.49988 641.5 1111
527.99988 647 1111
534.99988 658 1111
539.99988 663 1110
542.49988 667 1112
545.99988 672 1113
548.99988 675 1114
556.99988 683 1113
563.99988 688 1113
567.99988 689 1111
570.99988 689 1112
573.99988 692 1114
577.99988 695.5 1112
581.99988 698 1112
585.99988 699 1110
584.99988 701 1113
592.99988 706 1112
595.99988 707 1111
599.99988 711 1112
606.99988 717 1112
610.99988 719 1112
614.99988 721 1110
616.99988 723 1114
622.99988 726 1111.6666
625.99988 730 1110
634.49988 746 1112.5
638.99988 755 1113
644.99988 767 1112
651.99988 772 1113
648.99988 778 1114
652.99988 782 1114
655.99988 791 1112
657.99988 806 1112
660.99988 806 1113
661.99988 813 1114
-344.00012 -125 1116
-328.00012 -125 1115
-320.00012 -124 1115
-317.00012 -124 1116
-308.00012 -121 1118
-303.00012 -119 1116.5
-298.00012 -116 1116
-291.50012 -113.5 1118.5
-286.50012 -113.5 1118.5
-252.00011 -100 1118
-244.00011 -96 1115
-246.00011 -95 1119
-239.00011 -93 1115
-237.50011 -89 1116.5
-232.00011 -84.333336 1116.6666
-226.00011 -80 1116
-222.00011 -78 1117
-216.00011 -75 1115
-212.00011 -73 1117.5
-208.00011 -70 1119
-203.00011 -68 1118
-196.00011 -65 1116
-190.00011 -63 1118
-176.50011 -58 1117.5
-168.00011 -55 1117
-163.00011 -52 1118
-156.50011 -48.5 1118
-153.00011 -48 1116
-150.00011 -45 1118
-145.00011 -43 1116
-141.50011 -39 1115.5
-136.00011 -35 1116.5
-132.00011 -33 1118
-130.00011 -30 1116
-128.00011 -28 1117
-125.00011 -25 1118
-123.00011 -23 1118
-120.00011 -20 1117
-118.00011 -18 1116
-113.00011 -13 1117
-110.00011 -10 1119
-106.50011 -9 1115
-103.00011 -5 1116
-95.000107 2 1117
-91.500107 7 1118
-86.500107 12 1116
-83.000107 17 1116.5
-80.000107 21 1117
-78.000107 23 1118
-75.000107 26 1119
-67.000107 32 1115
-62.000111 37 1116.5
-53.000107 43 1118
-51.000111 45 1116
-46.000107 48 1118
-38.000107 50 1119
-0.00010857909 80 1119
1.9998914 82 1119
4.9998913 85 1118
14.999891 92 1116
19.999891 95 1116
24.999891 97 1115
31.999891 102 1119
41.999889 107 1115
51.999893 112 1118
56.999889 115 1117
61.999893 117 1119
71.999893 122 1115
77.999893 126 1116
82.999893 131 1117
93.999893 140 1117
96.999893 142 1118
101.99989 145 1117
117.99989 156 1117.5
121.99989 160 1118
131.99989 165 1115
133.99989 170 1118
137.99989 171.5 1116
143.49989 175.5 1117
146.99989 178 1115
149.99989 181 1116
153.49989 183 1117.5
154.99989 185 1118
156.99989 188 1116
158.49989 192 1116.5
159.99989 195 1119
161.99989 198 1119
177.99989 209 1118
182.99989 209 1116
186.99989 213 1115.5
191.99989 217 1116
197.99989 219 1118
202.99989 227 1119
213.99989 232 1117
213.99989 235 1119
216.99989 235 1115
229.99989 244 1115
233.49989 247 1118
236.99989 251 1119
242.99989 254 1115
252.49989 261 1115
257.49988 266.5 1115.5
262.49988 271 1118
267.99988 276.5 1118
274.99988 281 1115
277.99988 284 1115
280.99988 287 1116
282.99988 291 1118
285.99988 294 1118
287.99988 297 1118
292.49988 301 1118
297.99988 306.5 1117.5
298.99988 310 1119
304.99988 316 1117
307.99988 319 1117
310.99988 322 1116
313.49988 326 1117
316.99988 330 1117
318.99988 336 1118
321.99988 338 1118
324.99988 341 1118
327.99988 346 1117.5
330.99988 351 1117
333.99988 356 1116
337.99988 362.5 1118
342.99988 367 1116
345.99988 373 1116
348.49988 377 1117
351.99988 381 1117
353.99988 386 1119
357.49988 391 1117
363.49988 397 1117
366.99988 399 1116
372.99988 408 1116
377.99988 419 1118
381.49988 423 1118
384.99988 427 1116
387.99988 432 1117.5
390.99988 437 1116
393.99988 440 1116
396.99988 443 1116
399.99988 448 1119
400.99988 447 1115
402.99988 452 1117
406.99988 456 1115
408.99988 461 1118
412.99988 464 1117
415.99988 468 1116
419.99988 471 1115
424.99988 477 1116
434.99988 495 1117
438.99988 502 1116
442.99988 511 1116
445.99988 523 1117
446.99988 527 1115
450.99988 533 1115
449.99988 535 1118
456.99988 551 1119
461.99988 558 1116
463.66653 561.66669 1118
464.99988 567 1118
464.99988 570 1119
468.99988 571 1117
468.99988 576 1117
471.99988 578 1117
475.99988 582 1116
479.99988 585 1115
482.99988 591 1117
486.99988 598 1116
488.99988 604 1119
490.99988 602 1115
492.99988 608 1118
496.99988 612 1116
499.99988 618 1119
504.99988 623 1116
506.99988 628 1119
511.99988 633 1117
515.99988 637 1116
518.99988 640 1117
521.99988 644 1117
525.99988 648 1117
529.99988 652 1115
531.99988 657 1119
537.99988 663 1115
551.99988 678 1115
553.49988 682.5 1117.5
559.99988 686 1115
562.99988 690 1116
567.99988 691 1117.3334
571.99988 693 1119
577.99988 697.5 1117.5
575.99988 700 1119
583.99988 702 1117
587.99988 704 1115
582.99988 705 1119
585.99988 705 1119
592.49988 707.5 1116.5
597.99988 711 1117
601.99988 712 1116
608.99988 721.5 1117.5
612.49988 722.5 1116.5
618.49988 727 1116.5
624.49988 732 1115
627.99988 736 1116
628.99988 741 1116
628.99988 747 1118
633.99988 751 1116
634.99988 757 1115
637.99988 757 1116
638.99988 761 1115
639.99988 767 1117
641.99988 767 1119
647.99988 779 1118
651.99988 777 1116
644.99988 780 1116
649.99988 787 1117
642.99988 792 1119
649.99988 790 1118
647.99988 797 1118
654.99988 796 1116
648.99988 804 1118
644.99988 807 1119
654.99988 811 1115
664.99988 812 1116
-342.00012 -121 1124
-339.00012 -121 1124
-317.00012 -121 1123.5
-312.00012 -121 1122
-300.00012 -116 1121
-282.00012 -116 1121
-296.00012 -113 1122
-291.00012 -111 1123
-287.00012 -111 1122
-283.00012 -112 1123
-252.00011 -99 1123
-248.00011 -95 1122
-242.00011 -93 1120.5
-240.00011 -90 1122
-238.00011 -88 1121
-235.00011 -85 1121
-233.00011 -83 1122
-228.00011 -80 1121
-218.00011 -75 1121
-197.00011 -65 1122
-192.00011 -62 1121
-186.00011 -60 1121.5
-179.00011 -57 1123
-171.00011 -55 1122
-166.00011 -52 1122
-160.00011 -50 1120
-152.00011 -45 1122
-148.00011 -42 1122
-145.00011 -40 1121
-142.00011 -38 1120
-140.00011 -35 1121
-136.00011 -32.5 1121.5
-131.00011 -29 1121.5
-127.00011 -25 1123
-124.00011 -23 1124
-121.00011 -19 1122
-116.00011 -14 1120
-111.00011 -9 1123
-107.00011 -8 1120
-105.00011 -4 1121.5
-102.00011 -3 1120
-100.66677 0.33333334 1122.6666
-97.500107 2 1122
-95.000107 6 1124
-92.000107 8 1123
-90.000107 11 1122
-88.000107 13 1121
-85.000107 17 1122
-81.500107 22 1121.5
-73.000107 28 1120
-70.000107 30 1121
-68.000107 33 1122
-65.000107 35 1123
-63.000107 38 1124
-58.000107 40 1123
-42.000107 50 1123.5
-1.0001084 77 1122
16.999891 94 1122
21.999891 97 1123
26.999891 99 1123
36.999893 104 1120
38.999893 107 1123
43.999893 109 1122
48.999893 112 1121
53.999893 114 1123
58.999893 117 1123
63.999893 119 1121
68.999893 122 1120
73.999893 124 1120
77.499893 128 1122.5
85.999893 134 1121
88.999893 137 1123
98.999893 144 1124
103.99989 147 1122
112.49989 153 1121.5
118.99989 159 1124
137.49989 173 1122
143.99989 177 1120
147.99989 181 1120.5
152.49989 186 1121.5
153.99989 190 1123
156.99989 192 1122
158.99989 197 1124
164.99989 200 1120
173.99989 208 1122
179.99989 211 1120
183.49989 212 1121
189.99989 218 1124
193.49989 218 1123.5
198.49989 222.5 1121.5
204.99989 229 1121
207.99989 229 1121
210.99989 232 1121
228.99989 245 1123
230.99989 247 1123
233.99989 250 1123
238.99989 253 1122
243.33324 256.33334 1122.6666
246.99989 259 1120
249.99989 261 1122
251.99989 263 1122
254.99989 266 1122
257.99988 269 1123
259.99988 271 1123
262.99988 274 1124
266.99988 278 1123
272.33322 281.66666 1121.6666
277.99988 286.5 1121
281.99988 293 1123
284.99988 296 1123
286.99988 298 1124
289.99988 301 1124
292.99988 304 1124
301.99988 313 1120
302.49988 316.5 1123.5
308.49988 322 1122
311.99988 328 1124
314.99988 334 1124
315.99988 332 1120
317.99988 337 1122
320.99988 339 1124
323.99988 343 1121
323.99988 345 1123
326.99988 349 1120
327.99988 352.5 1122.5
332.49988 358 1122.5
334.99988 362 1123
338.49988 366 1123
341.99988 369 1120
342.49988 372 1123
346.99988 379 1122
349.99988 382 1122
349.99988 385 1123
352.99988 388 1123
358.99988 394 1121
358.99988 396 1123
361.99988 399 1124
364.99988 401 1122
367.99988 403 1121
367.99988 405 1123
370.99988 409 1121
370.99988 411 1122
373.99988 415.5 1122.5
376.99988 420 1123
379.99988 426 1122
382.99988 429 1122
382.99988 432 1123
388.49988 436.5 1121.5
392.99988 441 1121
394.99988 446 1124
395.99988 445 1120
398.99988 450 1123
401.99988 453 1121
404.99988 457.5 1122.5
407.99988 461 1124
412.99988 467 1121
418.49988 472 1122
445.99988 528 1120
447.99988 536 1124
451.99988 541 1122.5
455.99988 554 1124
458.99988 561 1124
460.99988 568 1122
464.99988 572 1120
463.99988 575 1122
466.99988 577 1124
470.99988 578 1122
473.99988 582 1121
477.99988 587 1121
481.99988 592 1121
482.99988 597 1122.5
483.99988 601 1124
487.99988 605 1123
492.99988 610 1120
495.99988 614 1120
499.99988 620 1120
502.99988 623 1122
505.99988 629 1123
509.99988 634 1121
513.99988 638 1120
516.99988 641 1121
522.49988 646.5 1122.5
527.99988 653 1121
534.99988 663 1122
537.99988 666 1123
541.99988 670 1122
545.99988 675 1121
548.99988 680 1124
552.99988 684 1124
558.99988 688 1122
563.99988 690 1122
569.99988 693 1124
573.99988 701 1124
577.99988 701 1121.5
584.99988 706 1123
589.99988 709 1120
592.99988 709 1121
591.99988 710 1124
597.99988 713 1121
603.49988 718.5 1121.5
608.49988 723 1124
614.99988 726 1120
617.99988 731 1120.6666
622.33319 736.66669 1122.3334
618.99988 742 1124
626.99988 741 1122
627.99988 751 1123
636.99988 762 1120
641.99988 771 1121
642.99988 779 1122
645.99988 779 1123
649.99988 781 1121
640.99988 792 1124
647.99988 798.5 1121.5
643.99988 802 1121
647.99988 806 1121
653.99988 809 1124
662.99988 819 1123
-347.00012 -121 1125
-344.00012 -121 1125
-336.00012 -121 1125
-331.50012 -121 1128
-327.00012 -121 1129
-321.00012 -121 1126
-306.00012 -118 1126
-301.00012 -115 1127
-299.00012 -113 1128
-277.00012 -114 1128.3334
-294.00012 -110 1126
-287.00012 -108 1128
-281.33347 -108.33334 1127.3334
-278.00012 -110 1129
-254.00011 -102 1129
-252.00011 -97 1128
-247.00011 -93 1127
-242.00011 -90 1126
-239.00011 -87 1127
-237.00011 -85 1128
-234.00011 -82 1129
-229.00011 -80 1128
-224.00011 -77 1129
-219.00011 -75 1126
-214.00011 -72 1126
-204.00011 -67 1129
-199.00011 -65 1128
-194.00011 -62 1129
-181.00011 -57 1126
-176.00011 -55 1127
-172.50011 -53.5 1127
-169.00011 -52 1128
-163.00011 -50 1126.5
-158.00011 -47 1127
-156.00011 -45 1129
-152.50011 -43.5 1126.5
-148.00011 -40 1127
-144.00011 -37 1125
-143.00011 -35 1127
-139.00011 -32 1126
-136.00011 -30 1129
-132.50011 -28.5 1126.5
-127.50011 -24 1128
-123.00011 -19 1128
-118.00011 -14 1126.5
-113.00011 -9 1127.5
-107.00011 -4 1126
-103.00011 0.5 1128.5
-99.000107 3 1129
-97.000107 6 1129
-94.000107 8 1128
-91.000107 12 1127
-87.000107 16 1127
-85.000107 21 1129
-82.000107 23 1127
-76.000107 26.5 1126
-72.000107 30 1127
-55.000107 43 1126
-48.000107 47 1126
8.4998922 88 1126
28.999891 101 1128
33.999893 104 1125
45.999893 111 1129
60.999893 118 1129
67.499893 122 1127
70.999893 124 1126
73.999893 126 1128
82.499893 132.5 1125.5
90.999893 139 1127
92.999893 141 1129
105.99989 149 1125
121.99989 162.5 1128.5
135.99989 174 1126
141.99989 178 1125.5
147.49989 183 1125.5
150.99989 188 1127.5
152.99989 191 1128
155.99989 194 1127
160.99989 200 1125
176.99989 211.33333 1126.6666
180.99989 212 1127
183.99989 215 1127
186.99989 215 1126
193.99989 220 1126
199.49989 227 1126
201.99989 227 1129
203.99989 230 1129
208.49989 231.5 1126.5
214.99989 237 1127.5
228.99989 247.5 1128
236.99989 253 1127.5
240.99989 257 1128
247.49989 261 1127
252.99989 266 1127.5
257.49988 271.5 1129
263.49988 276.5 1127.5
266.99988 281 1128
272.99988 284 1127
275.99988 287 1126
278.49988 290.5 1127
281.99988 296 1128
293.33322 306.33334 1127.3334
297.99988 312 1125
302.99988 319 1128
305.99988 322 1127
308.99988 325 1126
310.99988 330 1127
313.99988 335 1128
316.99988 339 1127
319.99988 342 1126
322.49988 348 1127.5
325.99988 353 1126
328.99988 355 1127
332.49988 361.5 1128.5
333.99988 366 1129
336.99988 369 1128
339.99988 373 1128
343.49988 376.5 1127
345.99988 381 1127
348.99988 386 1129
351.99988 390 1126
355.99988 393 1125
354.99988 395 1126
357.99988 398 1127
362.49988 402.5 1126.5
366.99988 407 1127
369.99988 412 1128
371.99988 418 1129
375.99988 423 1127
378.99988 427 1127
378.99988 430 1128
381.99988 433 1128
386.99988 437.5 1126.5
391.99988 442 1126
393.99988 448 1128
396.99988 451 1127
401.99988 457 1127
406.99988 463 1127
408.99988 468 1129
410.99988 467 1125
412.99988 471 1127.5
417.99988 473 1125.5
417.99988 476 1128.6666
435.99988 502.5 1126
439.99988 511.5 1125
442.99988 528 1128
454.99988 551 1125
454.99988 559 1128
458.99988 564 1125
458.99988 568 1129
462.99988 575 1128
469.99988 580 1126
472.99988 583 1126
471.99988 585 1129
475.99988 589 1127
475.99988 591 1129
479.99988 596 1127
482.99988 602 1129
486.99988 607 1126
492.99988 612.5 1125
493.99988 616 1128
497.99988 620 1127
500.99988 624 1126
500.99988 626 1129
504.99988 631 1127
508.49988 635.5 1127
512.99988 639 1125
514.99988 642 1127
521.99988 648 1128
525.99988 653 1126
529.99988 657 1126
532.99988 663 1128
536.99988 667 1128
536.99988 670 1129
540.99988 672 1126
544.99988 676 1125
556.99988 688 1127.5
563.49988 692.5 1127.5
565.99988 692 1125
569.49988 696.5 1127
571.99988 701 1129
575.99988 702 1128
579.99988 706 1128
582.49988 706.5 1126
587.99988 709 1125
592.99988 713 1126
597.99988 714 1125
593.99988 717 1128.5
598.99988 718 1125
597.99988 720 1127
601.99988 721 1126
602.99988 725 1126
608.33319 726.66669 1126.3334
612.99988 729 1127
609.99988 732 1127
612.99988 732 1128
616.99988 734 1126
615.99988 736 1129
621.99988 742 1126
621.99988 745 1127
625.99988 746 1126
627.99988 753.5 1126.5
628.99988 756 1129
634.99988 764 1128
632.99988 778 1129
649.99988 778 1128
634.99988 782 1127
641.99988 787 1127
641.99988 806 1127
657.49988 811 1128.5
-324.00012 -120 1131
-311.00012 -118 1132
-308.00012 -118 1131
-303.00012 -115 1133
-272.50012 -112 1133
-269.00012 -112 1134
-295.00012 -110 1131
-290.00012 -107 1133
-277.00012 -107 1132
-273.00012 -108.66666 1133.6666
-267.50012 -109 1134
-284.00012 -105 1134
-279.00012 -105 1133
-258.00012 -102.66666 1133.3334
-256.00012 -99 1134
-254.00011 -98 1132
-251.00011 -94 1133
-249.00011 -92 1132
-246.00011 -89 1134
-242.50011 -88 1132
-238.00011 -84 1133
-230.00011 -79 1134
-226.00011 -77 1133
-221.00011 -74 1133
-216.00011 -72 1131
-206.50011 -68 1131.5
-201.00011 -64 1131
-195.00011 -62 1133
-188.00011 -59 1130
-183.00011 -57 1131
-176.50011 -53 1133
-173.00011 -52 1131
-167.00011 -49 1133
-162.00011 -47 1132.5
-160.00011 -44 1134
-156.50011 -43.5 1133
-153.00011 -42 1130
-151.00011 -40 1133
-147.00011 -37 1132
-146.00011 -35 1134
-142.00011 -32 1132
-138.00011 -30 1132
-133.00011 -27 1132
-131.00011 -25 1134
-128.00011 -22 1133
-126.00011 -20 1134
-123.00011 -18 1134
-121.00011 -15 1131
-119.00011 -13 1132
-116.00011 -10 1131
-114.00011 -8 1133
-111.00011 -5 1133
-109.00011 -4 1131.5
-106.00011 0 1132
-102.50011 2 1133
-97.500107 7 1133.5
-93.000107 12 1132.5
-88.000107 17 1132
-84.000107 23 1134
-80.000107 25 1130
-77.000107 28 1132
-70.000107 33 1131
-66.000107 36 1131.5
-60.000107 40 1130
-51.500107 46 1132
-45.000107 50 1130
-37.000107 52 1130.5
11.999893 91 1134
18.999893 96 1131
23.999893 99 1131
31.999893 103 1134
36.999893 106 1133
40.999893 108 1131
50.999893 113 1131
55.999893 116 1132
62.999893 121 1133
75.999893 128 1130
77.999893 131 1131
80.999893 133 1133
86.999893 137 1132.5
95.999893 143 1131
99.999893 146 1132
102.99989 148 1133
108.99989 152 1132.5
114.99989 156 1130
122.99989 165 1133
134.99989 175 1133
138.99989 177 1130
142.99989 181 1130
145.99989 183 1130
144.99989 185 1134
147.99989 187 1132
152.99989 193 1132
156.99989 197.5 1131
160.99989 201 1131
172.99989 209 1130
172.99989 211 1133
177.99989 213 1134
180.99989 214 1132
182.99989 216 1134
185.99989 216 1132
190.99989 219 1131
193.99989 222 1130
195.99989 222 1131
200.99989 229 1133
205.99989 232 1131
211.99989 236 1130.5
226.99989 248 1133
228.99989 250 1134
233.49989 252 1131.5
236.99989 256 1133
242.99989 259 1131
244.99989 261 1131
247.99989 264 1132
249.99989 266 1134
252.99989 269 1133
257.99988 274 1133
260.99988 277 1134
263.99988 280 1131
267.49988 282.5 1132.5
273.49988 286.5 1131
273.99988 290 1133
276.99988 293 1132
279.99988 296 1132
281.99988 298 1134
285.99988 299 1130
287.99988 302 1130
289.99988 306 1134
292.99988 309 1133
296.99988 313 1130
298.33322 316 1132.6666
303.49988 322 1132
307.99988 326 1131
310.99988 332 1130
312.99988 337 1132
316.99988 341.66666 1131.6666
318.99988 345 1133
323.49988 352.5 1131.5
327.49988 358 1132
329.99988 362 1133
332.99988 368 1132
335.99988 372 1132
338.99988 375 1134
341.99988 379 1133
344.99988 382 1132
347.99988 387 1133
350.99988 392 1131
353.49988 397 1132.5
356.99988 399 1131
359.49988 403 1132.5
362.49988 406.5 1131.5
365.99988 409 1130
368.99988 414 1132
371.99988 420 1130
374.99988 425 1132
377.99988 431 1133
380.99988 434 1133
383.99988 437 1132
388.49988 442 1130.5
392.99988 449 1132
395.99988 452 1131
399.99988 456 1130
401.99988 461 1133
405.99988 465 1131
408.49988 471 1133
411.99988 473 1132
413.49988 476 1132.5
416.99988 479 1134
420.99988 482 1130.5
420.99988 485 1134
448.99988 545 1132
453.49988 557 1132
457.99988 571.5 1131.5
463.33322 577.33331 1132.3334
467.99988 582 1131.5
470.99988 588 1133
473.99988 592 1134
478.99988 597 1131
481.99988 604 1131
484.99988 607 1132
489.49988 612.5 1131
491.99988 616 1134
495.99988 622 1132
499.99988 628 1132
498.99988 630 1134
503.49988 632.5 1132.5
511.99988 640.5 1132
517.99988 644 1130
517.99988 647 1134
523.99988 653 1132
523.99988 656 1134
528.99988 658 1130
527.99988 660 1132
531.99988 665 1131
538.99988 672 1131
542.99988 677 1130
548.49988 682 1130.5
558.49988 690.5 1132.5
564.99988 696 1130
566.99988 699 1133
572.49988 703 1133
577.99988 706 1134
581.99988 708 1132
587.33319 712 1130.6666
588.99988 716 1132
592.99988 720 1133
596.49988 722.5 1132
602.99988 725.5 1130.5
607.99988 732 1133
610.99988 733 1133
612.99988 738 1131
614.99988 741 1133
620.99988 747 1130
620.99988 753 1132
628.99988 759 1130
628.99988 762 1133
633.99988 766 1130
633.49988 770.5 1132.5
642.99988 788 1133
634.99988 794 1132
635.99988 802 1132
638.99988 805 1133
643.99988 807 1131
649.99988 808 1132
-316.00012 -117 1137
-312.00012 -117 1135
-304.00012 -115 1136
-299.00012 -112 1135
-271.00012 -107 1135
-267.00012 -107 1136
-263.00012 -107 1135
-281.00012 -104 1135
-276.00012 -104 1135
-272.50012 -104 1135.5
-266.75012 -102.5 1137.75
-261.75012 -102.75 1136.5
-257.33347 -97.666664 1136.6666
-251.00011 -93 1138
-247.00011 -89 1139
-242.00011 -86 1138
-240.00011 -84 1139
-235.00011 -82 1135
-227.00011 -77 1137
-222.00011 -74 1137
-217.00011 -71 1139
-210.00011 -69 1135
-202.00011 -64 1139
-190.00011 -59 1137
-185.00011 -57 1136
-180.00011 -54 1135
-177.00011 -52 1137
-175.00011 -49 1139
-171.00011 -49 1136.5
-166.00011 -47 1137.5
-162.00011 -44 1138
-158.00011 -42 1137
-155.00011 -39 1138
-151.50011 -38.5 1136.5
-148.00011 -35 1138
-140.00011 -30 1136
-136.50011 -27 1137
-131.50011 -23.5 1138.5
-126.50011 -18.5 1138
-122.00011 -14 1137
-117.00011 -9 1137
-112.00011 -4 1137
-107.00011 0.5 1137.5
-103.00011 3 1138
-101.00011 6 1137
-99.000107 8 1138
-96.000107 11 1139
-94.000107 13 1137
-91.000107 15 1139
-89.000107 18 1137
-86.000107 20 1137
-82.000107 25 1135
-79.000107 28 1139
-73.000107 31.5 1136
-69.000107 35 1139
-62.000107 40 1135
-57.000107 42 1135
-40.000107 52 1136
-32.000107 54 1135.5
-1.0001068 78 1139
-0.00010700548 81 1137
21.999893 98 1139
26.999893 101 1136
38.999893 108 1138
43.999893 110 1136
48.999893 113 1137
53.999893 115 1136
57.999893 118 1137
65.999893 123 1136
71.999893 126.5 1137
74.999893 130 1138
82.999893 135 1139
89.999893 140 1138
96.999893 145 1139
113.49989 156 1137
118.49989 161 1136
133.49989 176 1138
136.99989 178 1135
139.99989 180 1135
141.99989 183 1135
143.49989 186 1139
149.99989 191 1136.5
153.49989 196.5 1137
156.99989 200 1137
173.99989 213 1137
179.99989 215 1139
187.99989 218 1137
189.99989 221 1136
193.99989 223 1137.5
202.99989 232.5 1136
206.99989 234 1137
207.99989 236 1138
212.99989 239 1139
225.99989 249 1139
230.99989 252 1136
233.99989 255 1136
237.49989 257.5 1136.5
238.99989 260 1138
242.33324 261.66666 1136.6666
247.99989 266.5 1138
253.99989 271.33334 1137.3334
258.49988 277 1138.5
263.99988 282.5 1138.5
267.99988 284 1136
270.99988 288 1137
273.49988 293 1137.5
277.49988 296 1137.5
282.99988 300.5 1137
286.99988 303 1135
288.49988 306.5 1138
291.99988 311 1137
294.99988 316 1139
297.99988 319 1138
301.99988 323 1138
306.99988 328 1135
307.99988 331.5 1136.5
308.99988 335 1139
311.99988 338 1137
313.99988 343 1139
317.49988 348 1138
320.99988 352 1137
323.99988 355 1135
327.49988 362 1137
329.99988 366 1136
331.99988 369 1136
334.99988 375 1136
337.99988 377 1137
342.49988 382 1136.5
342.99988 385 1139
346.99988 389 1136
348.49988 392.5 1137.5
354.99988 403 1138
355.99988 401 1135
357.99988 406 1137
360.99988 408 1138
364.49988 411 1136
367.49988 416 1136.5
369.99988 423 1138
370.99988 421 1135
373.99988 428 1136
376.99988 432 1137
379.49988 436 1138
382.99988 439 1135
383.49988 441.5 1139
385.99988 442 1135
388.49988 446 1136.5
393.49988 451.5 1136
393.99988 455 1139
397.99988 458 1136.5
400.99988 462 1136
403.33322 466.33334 1137
403.99988 470 1139
406.99988 474 1138
409.99988 477 1138
413.99988 478 1135
412.99988 480 1138
416.99988 482 1136
417.99988 486.5 1138
447.99988 540 1136
448.49988 547 1136
455.99988 573 1138
459.99988 577 1137
462.99988 580 1138
465.99988 584 1137
465.99988 586 1139
469.99988 590 1138
472.99988 594 1137
476.99988 598 1136
477.99988 602 1138
479.99988 606 1139
484.99988 609 1135
483.99988 611 1137
486.99988 614 1137
490.99988 618 1137
489.99988 620 1139
490.99988 623 1139
494.49988 626 1138
497.99988 632 1137
500.99988 635 1138
505.99988 637 1135
508.99988 640 1136
510.99988 642 1138
514.99988 647 1137
518.99988 652.5 1136.5
522.99988 657 1137
526.99988 662 1136
529.99988 665 1136
533.99988 669 1136
537.99988 673 1135
540.99988 676 1137
544.99988 681 1136
547.99988 683 1138
551.99988 685 1135
553.99988 690 1139
558.99988 692 1137
562.99988 697 1135
565.99988 700 1137
571.99988 704 1138
577.99988 708.5 1137.5
579.99988 712 1138
584.99988 714 1135
582.99988 715 1139
587.49988 718.5 1137
592.33319 722.66669 1138
598.49988 727.5 1137
602.49988 728 1136
605.99988 733 1137
607.99988 736.5 1138.5
609.99988 741 1138
614.99988 743 1135
613.66656 747.33331 1137.3334
618.99988 747 1135
614.99988 751 1139
617.99988 752 1139
622.99988 752.5 1136
611.99988 755 1138
618.99988 755 1139
622.99988 757 1138
619.99988 763 1139
622.99988 760 1139
627.99988 767 1137
623.49988 771 1138
631.99988 776 1138
631.99988 788 1136
629.99988 792 1135
633.99988 805 1139
638.99988 808 1135
648.99988 815 1138
-341.00009 -117 1140.5
-337.00009 -117 1142
-334.00009 -117 1143
-318.00009 -117 1142
-307.00009 -114 1141.5
-301.00009 -112 1140
-296.00009 -109 1140
-291.00009 -106.5 1142.5
-286.00009 -104 1141.5
-277.00009 -101 1142
-271.00009 -101 1140
-268.00009 -99 1143
-261.6001 -97.800003 1141
-256.00009 -94 1144
-252.50011 -92.5 1142
-249.00011 -89 1144
-244.00011 -86 1142
-236.00011 -81 1143
-232.00011 -79 1140
-229.00011 -76 1143
-219.00011 -71 1144
-212.00011 -69 1140
-208.00011 -66 1142
-204.00011 -64 1143
-197.00011 -61 1141
-191.00011 -59 1142
-187.50011 -56 1143
-182.00011 -54 1140
-179.00011 -52 1141
-176.00011 -49 1143
-172.00011 -47 1142
-169.00011 -47 1140
-167.00011 -44 1143
-162.00011 -42.666668 1141.3334
-157.00011 -39 1141
-153.00011 -37 1142.5
-152.00011 -34 1144
-147.00011 -32.666668 1142
-142.00011 -30 1141
-139.00011 -27 1144
-135.00011 -25 1142
-132.00011 -22 1143
-130.00011 -20 1144
-127.00011 -17 1143
-125.00011 -15 1142
-123.00011 -13 1142
-120.00011 -10 1143
-118.00011 -8 1143
-115.00011 -5 1142
-113.00011 -3 1142
-110.00011 0 1143
-106.50011 2 1143
-102.00011 7 1142
-97.000107 12 1143.5
-86.000107 23 1143
-84.000107 25 1144
-76.000107 30 1142
-67.000107 37 1140
-64.000107 40 1144
-57.000107 43 1143.5
-47.000107 49 1141
-43.000107 52 1141
-35.000107 54 1142
1.9998933 83 1141
4.9998937 85 1143
6.9998937 88 1142
13.999893 93 1140
16.999893 95 1143
